# .PCD v0.7 - Point Cloud Data file format
VERSION 0.7
FIELDS x y z
SIZE 4 4 4
TYPE F F F
COUNT 1 1 1
WIDTH 1458
HEIGHT 1
VIEWPOINT 0 0 0 1 0 0 0
POINTS 1458
DATA ascii
0.034006 0.029012 0.12312
0.032568 0.028783999 0.12193
0.086406998 0.058203999 0.036070999
0.085184999 0.058318999 0.03641
0.085644998 0.051029999 0.048163999
0.085722998 0.050912999 0.049490001
0.085199997 0.051252998 0.048772998
0.062477998 -0.0032372 0.093790002
0.062282 -0.0020695999 0.093604997
0.062882997 -0.0018196 0.094927996
0.047660999 0.080945998 0.066140004
0.047431 0.082459003 0.066150002
0.023684001 0.010964 0.081367999
0.024289999 0.012095 0.081944004
0.062272001 -0.0029416999 0.11574
0.063927002 0.053229 0.0414
0.064058997 0.053378001 0.041125
0.065260001 0.052905999 0.040968999
0.079847001 0.068290003 0.016434001
0.032382 -0.039374001 0.043894999
0.065484002 0.039129 0.040601999
0.072636999 0.048645001 0.061756998
-0.01536 0.035167001 0.12362
0.043891001 -0.037388001 0.067617998
0.029301001 -0.044371001 0.041159
0.029562 -0.043871 0.041524
0.029457999 -0.041568998 0.040456001
0.042091999 0.10868 0.067919001
0.043001998 0.10947 0.068980999
0.04236 0.10909 0.067133002
0.088505998 0.078548998 0.042213999
0.088886 0.078711003 0.041421
0.087782003 0.079821996 0.041832
0.045499001 -0.0048476998 0.1329
0.046856001 -0.0040751002 0.13248
0.045288 -0.0034993 0.1329
0.045828 0.016136 0.13071001
0.046000998 0.015093 0.13076
0.046447001 0.015619 0.13046999
0.032343 -0.045152999 0.037907001
0.031073 -0.044415999 0.038010001
0.011141 -0.011304 0.10856
0.064138003 0.015884999 0.1095
0.064199999 0.015725 0.10925
0.064952999 0.014374 0.10892
0.040369 0.058841001 0.098548003
0.039151002 0.058975998 0.099835999
0.015533 0.0022684999 0.084138997
0.016538 0.0019604 0.084504999
-0.019567 0.011784 0.11941
-0.019025 0.011263 0.1202
-0.019229 0.011339 0.12066
0.015535 0.0021511 0.083917998
0.016352 0.001574 0.082661003
0.00060699001 -0.0017247 0.071965002
-0.00019494 -0.0027798 0.070653997
-0.0012235 -0.001679 0.070634
0.034719002 -0.019268 0.087958999
0.034510002 -0.018122001 0.087131001
0.073651999 0.067922004 0.012323
0.074225001 0.067454003 0.011326
-0.0085212998 0.030964 0.12593
-0.0087866997 0.030226 0.12617999
0.0011131 -0.00079811999 0.072843999
0.043644998 -0.020733999 0.10301
0.042925999 -0.020203 0.10292
0.044721 0.052813001 0.099311002
0.043806002 0.052361999 0.099564999
0.044452 0.052331001 0.099068999
0.033847 0.035114001 0.072834
0.034418002 0.035142001 0.072443001
0.034666002 0.034113999 0.072327003
0.034375001 0.0071617002 0.13399
0.059292 0.025327999 0.064044997
0.022448 0.061776001 0.083040997
0.02263 0.061728001 0.083430998
0.023146 0.061115999 0.084128
0.056834001 -0.030324999 0.059813
-0.024499999 0.0077355001 0.12068
-0.025846001 0.0077598998 0.12025
0.015944 0.0080922004 0.12451
0.040677 0.033649001 0.069507003
0.044369999 -0.001763 0.13321
0.045060001 -0.0019325 0.13323
0.043866001 -0.0023594 0.13395
0.076113001 0.056366 0.033477001
0.074947 0.056483999 0.033976998
0.031737 0.078377999 0.084684998
0.065608002 0.013488 0.096534997
0.091402002 0.075438 0.036279999
0.010789 0.0012788 0.10208
0.01082 0.0021732999 0.10271
0.010755 0.0016745999 0.10145
0.035948999 -0.033248 0.058148999
0.036357 -0.033785999 0.059987999
0.033452999 -0.018694 0.12307
0.017661 -0.029273 0.094068997
0.017994 -0.030231001 0.093713
0.019338001 0.029343 0.091463998
0.025668001 0.011944 0.077486001
0.026319999 0.010882 0.077289999
0.064194001 -0.0019590999 0.11065
0.0050379001 0.0022771 0.083577
0.061131001 0.11151 0.067553997
0.059746001 0.11207 0.068066001
-0.023809001 0.020768 0.11038
-0.024882 0.020199001 0.11153
-0.024775 0.021098001 0.11045
0.066674002 0.041799001 0.084945001
0.065535001 0.042819001 0.085826002
0.068907999 0.025002999 0.071478002
0.069031999 0.025261 0.070229001
0.06927 0.026883001 0.071957998
-0.011588 -0.021302 0.10767
0.057581 -0.022025 0.075076997
0.085605003 0.074362002 0.022895999
0.086464003 0.074487001 0.024050999
0.0063594999 0.015694 0.11773
0.0067678001 0.015132 0.11576
0.0072464999 0.015843 0.11725
0.060787998 0.11108 0.068282001
0.0067073 -0.0054345001 0.071497999
0.072385997 0.026463 0.060706999
0.073004 0.025717 0.061535999
0.039297 -0.021359 0.11847
-0.0059711002 -0.0057232999 0.075825997
0.045710001 0.017594 0.13023999
0.045015998 0.017725 0.13068999
0.043926999 0.017154999 0.12962
0.088852003 0.066560999 0.037877999
0.089069001 0.065803997 0.035328001
0.089332998 0.066770002 0.037129998
0.045464002 0.045171998 0.070289999
0.044962998 0.046525002 0.070859998
0.026517 -0.041661002 0.034467999
0.027528999 -0.041007001 0.0348
0.072058 0.056108002 0.035331
0.067763001 0.053135999 0.085058004
0.092896998 0.075052999 0.033516999
0.092285998 0.076393001 0.032302
0.021829 0.068811998 0.077473998
0.029598 -0.041483998 0.033631001
0.029797999 -0.040451001 0.034338001
0.046168 0.10446 0.071257003
0.045426998 0.10511 0.070779003
0.045338999 0.10521 0.070433997
0.088132001 0.069154002 0.040638
0.088458002 0.070316002 0.039632
0.088381 0.071350001 0.040677
0.078037001 0.062881 0.031615
0.078644998 0.063285999 0.031592999
0.057351999 -0.0060260999 0.122
0.057248 -0.0064182999 0.12154
0.066118002 0.053656999 0.085059002
0.066303998 0.053463001 0.08399
0.068186998 0.054308999 0.084399
0.058378998 -0.0041935998 0.085833997
0.05844 -0.0043823998 0.084969997
0.058820002 -0.0052417 0.085285001
0.039127 -0.027473999 0.062376
0.062907003 0.0244 0.064421996
0.062192999 0.024157999 0.063556999
0.061716001 0.020546 0.083687
0.0094248997 -0.018259 0.080930002
0.062959999 0.017415 0.11168
0.063892998 0.017259 0.11238
0.0070624999 -0.013819 0.078965001
0.0080027999 -0.013726 0.078016996
0.0090146 -0.034905002 0.088923998
0.0099751996 -0.034915999 0.089519002
0.033344001 -0.022971001 0.095977001
0.031918999 -0.022575 0.096667998
0.032290999 -0.022234 0.095117003
-0.0030534 -0.014873 0.10652
-0.0035244999 -0.015518 0.10715
-0.0038582999 -0.015061 0.1071
-0.043189 0.011013 0.11141
-0.042537998 0.011794 0.11179
-0.042213999 0.011186 0.11261
0.0055303001 0.0013068001 0.082479
0.01033 -0.0016018 0.11451
0.059351999 0.014842 0.087862998
0.059147 0.015552 0.088455997
0.038757 -0.027828 0.059301
0.038887002 -0.026873 0.058628999
0.075452 0.067062996 0.0096853999
0.0088857999 -0.023374001 0.091006003
0.0092059001 -0.02369 0.092188001
0.062137999 0.055617001 0.091972999
0.061822001 0.056051001 0.09223
0.028535999 0.02193 0.075781003
0.028173 0.023579 0.076746002
0.046252999 0.0383 0.10976
0.047777001 0.038573001 0.10913
0.046147998 0.038431 0.10906
-0.038570002 0.0088913999 0.12132
-0.03726 0.0098005002 0.12165
-0.037733998 0.010829 0.12093
0.043745998 -0.022913 0.079604998
0.043710001 -0.022386 0.078805
0.043777 -0.023065001 0.078029998
-0.02531 0.006672 0.12264
-0.025443999 0.0072486 0.12128
0.066243999 0.046757001 0.074694
0.066918001 0.045664001 0.075425997
0.040321 -0.040628001 0.041079
0.039438002 -0.041216999 0.039786
0.027229 -0.048962001 0.041209999
0.027556 -0.049357001 0.042535
0.025776001 -0.049153 0.041310001
0.045898002 -0.038318999 0.047605999
0.046741001 -0.038137 0.048831999
0.058175001 0.0013525001 0.12447
0.057953998 0.0023057 0.12445
0.056460001 0.0022966 0.12492
0.065811999 0.051047999 0.058660001
0.064672999 0.050027002 0.057925001
0.064479001 0.051894002 0.059142999
0.071129002 0.066817001 0.038846999
0.070496 0.065747999 0.038688999
0.050104 0.093194999 0.082532004
0.051220998 0.094687998 0.082190998
0.049904998 0.093920998 0.082622997
0.038756002 -0.045152999 0.042661998
0.066781998 0.059296999 0.048613999
0.027445 0.049621001 0.087908998
0.027535001 0.049559999 0.087866001
0.027766 0.050480999 0.088097997
0.059661001 0.049222 0.082773998
0.059781 0.050184 0.082075
0.066899002 0.037176002 0.038773
0.067028001 0.037631001 0.037735999
0.053254001 0.10908 0.071172997
0.05325 0.1081 0.071525
0.043951999 0.102 0.067114003
0.058113001 0.094980001 0.069539003
-0.033358999 0.020695999 0.11232
-0.034642 0.020047 0.11313
-0.034779999 0.020512 0.11307
0.047339 0.051647998 0.076394998
0.04803 0.050515998 0.076976001
0.047146 0.050724 0.076644003
0.064773001 0.022963 0.098287001
0.063974001 0.023783 0.098288
0.060842998 0.0070710001 0.119
0.061274 0.0071109999 0.11948
0.011942 -0.028178001 0.090609998
0.030672999 0.065384999 0.071347997
0.029646 0.067263 0.072527997
0.048257999 0.029553 0.11941
0.053546999 0.11271 0.068069004
0.051011 -0.041909002 0.054901998
0.051445 -0.041432999 0.055204999
0.02341 0.081598997 0.076434001
0.024489 0.082322001 0.078060001
0.077941999 0.041659001 0.047432002
0.078731 0.041965999 0.047897998
-0.035236001 0.020237001 0.11219
0.039624002 0.043547001 0.10409
0.038144998 0.042842001 0.10324
0.038832001 0.042252 0.10461
0.042707 0.11478 0.062545002
0.042927001 0.11376 0.061376002
0.060642999 0.019218 0.083999999
0.060814999 0.019431001 0.084868997
0.042833999 -0.0074801999 0.073214002
0.043129999 -0.0072786999 0.073234998
-0.021825001 0.030712999 0.11031
0.034348998 -0.01391 0.080073997
0.028827 -0.053777002 0.056465
0.051695999 0.055980001 0.093244001
0.062284999 0.046750002 0.050009999
0.065171003 0.0045456998 0.10285
0.065869004 0.0055772001 0.10366
0.065677002 0.0064709 0.10385
0.088629998 0.069577001 0.093184002
0.088090003 0.069583997 0.093740001
0.088537998 0.069844998 0.094307996
0.065545999 0.012039 0.10855
0.065645002 0.010187 0.10873
0.028135 0.055925 0.077317998
0.077592999 0.051971 0.032979999
0.077662997 0.051461998 0.034054
0.076779999 0.051082 0.034061
0.025477 0.082900003 0.071866997
0.024969 0.082006998 0.071626998
-0.0063693002 -0.0090992004 0.072396003
-0.0051822001 -0.0085944002 0.073482998
-0.025741 0.030774999 0.11406
-0.024908001 0.02973 0.11374
0.021822 0.0046413001 0.085143998
0.021097001 0.0049780002 0.084904999
0.063983001 0.024212999 0.060856
0.063943997 0.024885001 0.061496999
-0.027678 0.021635 0.12306
-0.017455 0.035046998 0.11713
0.046776 0.062942997 0.079742998
0.046546999 0.063414998 0.078826003
0.019617001 -0.022941999 0.11255
0.0070731002 0.019311 0.10592
0.0076508 0.018927 0.10518
0.006815 0.017052 0.10664
0.039376002 -0.050142001 0.054621998
0.038435999 -0.051562998 0.053318001
0.0048253001 -0.018448001 0.092211999
0.0055280002 -0.019893 0.090617999
0.060539 0.057645999 0.088417999
0.065572001 0.035023 0.087205
0.069266997 0.035863999 0.079731002
0.070092998 0.036449999 0.079692997
0.011252 -0.027961999 0.090104997
0.052962001 0.085000999 0.071232997
-0.0061964002 -0.0086401002 0.067410998
-0.0071871001 -0.0086903004 0.067679003
-0.0066200998 -0.0074398001 0.067850001
0.052228998 -0.022576001 0.081887998
0.052124001 -0.022457 0.083153002
0.067229003 0.038566001 0.084152997
0.066735998 0.037227001 0.084302999
0.021733999 0.06566 0.086724997
0.022489 0.065356001 0.087279998
0.022546001 0.066623002 0.087814003
0.015543 -0.01382 0.078282997
0.015579 -0.013019 0.077454999
0.044493999 -0.031234 0.046827
0.045178 -0.030019 0.048672002
0.046431001 -0.03112 0.048788998
0.018502999 -0.0022954999 0.12468
0.018251 -0.0014961 0.1243
0.024288001 0.08348 0.075854003
0.024431 0.083086997 0.075547002
0.042341001 0.03042 0.1206
0.041995 0.031205 0.11901
-0.043363001 0.0063227001 0.11554
0.051327001 -0.032641001 0.051064
0.051656999 -0.031808 0.051405001
0.051394999 -0.033068001 0.051548999
0.027858 -0.0073617999 0.13101999
0.027921 -0.0074160001 0.13036001
0.051989 -0.016030001 0.11745
0.052140001 -0.01522 0.11651
0.079364002 0.053057998 0.033810999
0.078856997 0.053036001 0.033702001
0.041471999 -0.024489 0.070216
0.041754998 -0.025211001 0.071373999
0.071232997 0.025796 0.055688001
0.072002001 0.026972 0.056575999
0.053606 -0.024336999 0.055923998
0.070280001 0.060968 0.093956001
0.068866 0.061351001 0.094168998
0.030618001 -0.019944999 0.092831999
0.032621 -0.019495999 0.093174003
0.045855001 0.033117 0.11399
0.048131999 0.10074 0.058742002
0.031304002 0.0090578003 0.072704002
0.031608999 0.010835 0.072559997
0.032357998 0.0082470002 0.071964003
0.033220001 -0.021224 0.093542002
0.033927999 -0.022399999 0.093998998
0.060134999 -0.011156 0.077518001
0.060219999 -0.0099606998 0.076803997
-0.017887 0.026477 0.10632
-0.018467 0.02492 0.10637
-0.018501 0.02637 0.10701
0.023553999 0.020905999 0.12472
0.022647001 0.020934001 0.1252
0.028809 0.071941003 0.093289003
0.029579001 0.072324999 0.092781
0.032134 0.080819003 0.083802998
0.032620002 0.080357999 0.084083997
0.03331 0.081569999 0.084230997
0.056673001 -0.027202999 0.062369
0.017701 -0.018545 0.11624
0.018116999 -0.019912001 0.11521
0.044918999 0.071493 0.084132999
0.046459001 0.072047003 0.082653001
0.045193002 0.073353 0.082622997
0.035099 0.083740003 0.066587999
0.036626 0.084962003 0.066150002
0.036125001 0.083809003 0.066785999
0.077235997 0.063780002 0.032462999
0.077734001 0.063708998 0.032453001
0.076687001 0.06363 0.032724001
0.053178001 -0.025986999 0.05443
0.053428002 -0.027380001 0.055787999
0.077752002 0.039485998 0.061055999
0.078330003 0.040181998 0.060688999
0.079623997 0.066226996 0.093874
0.078776002 0.066835001 0.092942998
0.078598998 0.067300998 0.094415002
-0.00098206999 0.034846 0.11607
-0.0018752 0.034221001 0.11747
-0.00028380001 -0.01204 0.092410997
0.00032019001 -0.011925 0.093416996
0.00069819001 -0.011029 0.092836
0.073537 0.02696 0.068934999
0.074042 0.027438 0.067359
0.075322002 0.02795 0.068558
0.087122999 0.076633997 0.042009
0.088399 0.076860003 0.041347999
0.041714001 0.029413 0.12162
0.021368001 0.072927997 0.080797002
0.021813 0.073167004 0.082708001
0.021893 0.073912002 0.082236998
0.078962997 0.062389001 0.090193003
0.078927003 0.061386 0.090435997
0.043894 0.061967 0.077550001
0.044009998 0.061439998 0.077559002
0.043598998 0.061602 0.076640002
0.073325999 0.065554999 0.049447
0.040284 -0.018487001 0.12318
-0.043308999 0.0074087 0.11369
-0.043605 0.0063781999 0.11434
0.0055515999 -0.0069539002 0.10533
0.0058372999 -0.0080356002 0.10538
0.059505001 0.046636 0.055332001
0.060502999 0.045944002 0.053683002
0.043522 -0.038359001 0.047038998
0.043249 -0.038532998 0.046727002
-0.015145 0.017971 0.11397
-0.039259002 0.014056 0.11186
-0.039352 0.014176 0.11205
-0.038674001 0.013384 0.11306
0.030375 0.034449998 0.079939
0.039923999 0.029317001 0.071960002
0.040093999 0.030076001 0.071034998
0.0017327 -0.010168 0.067920998
0.033 0.057252001 0.098614
0.031826001 0.056492999 0.098535001
0.033852998 0.056841001 0.097716004
0.052469999 0.085957997 0.080449
0.064623997 0.053309999 0.046273999
0.015502 0.011566 0.087468997
0.015689 0.011364 0.088460997
0.038511999 0.013797 0.13313
0.055824 0.040697001 0.052974001
0.057085 0.041800998 0.052212998
0.040582001 -0.027456 0.071425997
0.039297 -0.027279999 0.070451997
0.041921999 -0.020568 0.096079998
0.043177001 -0.02038 0.095421001
0.044392001 -0.020688999 0.095032997
0.021852 0.063712999 0.085894004
0.022604 0.064110003 0.086018004
0.02155 0.065151997 0.085336998
0.020948 0.010853 0.084279001
0.021499 0.010002 0.084528998
0.041211002 0.046339002 0.072187997
0.040408 0.04733 0.074279003
0.024419 0.058695 0.082799003
0.023783 0.058770001 0.083623998
0.023058999 0.059523001 0.083881997
0.033048 0.075554997 0.090764999
0.031780999 0.075125001 0.091415003
0.033236999 0.074317001 0.092073999
0.011215 -0.0042878999 0.116
0.082200997 0.072595999 0.017407
0.022229999 0.029145001 0.086304002
0.023347 0.028755 0.085717998
0.023421001 -0.0031496 0.13067
0.023800001 -0.0020798 0.12998
0.054056998 -0.037002001 0.066269003
0.055516001 -0.036718 0.064929999
0.054696999 -0.035719998 0.066062003
0.055971 -0.0092371004 0.1206
0.062627003 0.047091 0.084498003
0.062311999 0.046289999 0.082602002
0.062219001 0.046930999 0.082946002
0.053833999 0.023832999 0.069306999
-0.014133 0.036166001 0.12007
0.051704001 -0.019224999 0.087467
0.051456001 -0.019621 0.086390004
0.039291002 0.056375999 0.098278999
0.039003 0.056717001 0.097960003
0.052035999 0.022534 0.073939003
0.051111002 0.022027999 0.073746003
0.050275002 0.02241 0.072618999
-0.0017719 0.022564 0.11005
0.050221 0.084937997 0.065747
0.049607001 0.084743001 0.065214999
0.089357004 0.064520001 0.038631
0.088803999 0.063846998 0.038766
0.063647002 0.024699001 0.068604998
0.063810997 0.024398999 0.068636999
0.061666999 0.024412001 0.069963999
0.050588999 0.080178 0.074323997
0.028545 0.035512999 0.086847998
0.029432001 0.036249999 0.085354
0.027473999 0.034931 0.086475
0.035728 0.075737998 0.089907996
0.035105001 0.075250998 0.091401003
0.0079712998 -0.019676 0.10186
0.0087294001 -0.020522 0.10278
0.033585999 0.1067 0.048875999
0.034329999 0.1074 0.049592
0.035068002 0.10625 0.049394999
0.041262999 0.085235 0.064994998
0.040653002 0.085826002 0.065247998
0.040585 0.087297 0.064910002
0.061946001 0.017008999 0.11342
0.061767001 0.017902 0.11304
0.060741 0.018519999 0.11398
0.030658999 -0.021377999 0.12183
0.028287999 -0.01966 0.089805998
0.061579 0.038206998 0.097047001
-0.0068421001 -0.02256 0.11093
-0.044124998 0.010641 0.11269
-0.043738998 0.0092791999 0.11188
-0.0069638998 0.019264 0.11206
-0.0067229001 0.01832 0.11215
0.050007999 -0.019714 0.1004
0.051192999 -0.018443 0.10137
0.049299002 -0.019874999 0.099955
0.086231001 0.082870997 0.034646999
0.068448998 0.026722001 0.052513
0.031622 0.089474 0.077007003
0.033025 0.090980999 0.075972997
0.033333998 0.10914 0.059595998
0.034083001 0.10957 0.060283002
0.032171998 0.11012 0.059547
0.023398001 0.069714002 0.088808998
0.023388 0.070744999 0.088765003
0.022839 0.070990004 0.087673999
0.030936001 -0.051589001 0.057025999
0.043354999 0.10283 0.070178002
0.04335 0.10176 0.069576003
0.0014581 0.035089001 0.11204
0.058595002 -0.0050030998 0.11972
0.058313999 -0.0043102 0.11963
0.058476999 -0.0050733001 0.11983
0.038993999 -0.031899001 0.069306999
0.038917001 -0.032372002 0.070253998
0.038481999 -0.030925 0.069039002
-0.029742001 0.0033155 0.12124
-0.029953999 0.0012229 0.12188
0.056387998 0.036552001 0.10509
0.035817999 0.093188003 0.077168003
0.036309998 0.094636999 0.076228999
-0.0034031 -0.016683999 0.10037
-0.0021986 -0.015555 0.099843003
0.088266999 0.058561999 0.042381
0.087889999 0.058168001 0.043095
0.064346999 0.047791999 0.046555001
0.064121999 0.047649998 0.045878001
0.063902996 0.047447 0.047708999
0.031723998 0.01757 0.077062003
0.032421 0.016819 0.076678999
0.017346 -0.032958001 0.093657002
0.079320997 0.067675002 0.094838001
0.062155001 0.018437 0.088568002
0.062945001 0.019877 0.087769002
0.063074999 0.019192001 0.089698002
0.031629998 0.026977999 0.12219
0.044376001 0.013439 0.075709999
0.044723999 0.014526 0.075668998
0.045127001 0.014302 0.076240003
0.022298001 0.00069453998 0.13004
0.022875 0.00042110999 0.12964
0.013862 0.033893999 0.11234
0.013666 0.033689 0.11118
0.012324 0.034508999 0.11234
0.044434 -0.020083999 0.097938001
0.043115001 -0.020444 0.096775003
0.043653 -0.020095 0.096121997
0.048331 0.056329001 0.081634998
0.047828998 0.055852 0.080782004
0.046404 0.056598999 0.081139997
-0.024277 0.0069912998 0.12326
-0.025735 0.0080209998 0.12402
0.062438 0.059427999 0.090350002
0.063298002 0.058614001 0.091104999
0.064184003 0.059641 0.090562999
0.031022999 -0.039928999 0.042093001
0.031636 -0.040318999 0.041855998
0.042631999 0.060981002 0.098773003
0.041823 0.061097998 0.097877003
0.041214999 0.060334999 0.098484002
0.078051001 0.074235998 0.036334001
0.076897003 0.074969999 0.037613999
0.065260001 0.0044168001 0.098705001
0.064866997 0.0053440998 0.10037
0.064346001 0.0049633998 0.10095
0.087243997 0.057546001 0.047761999
0.088018999 0.057721 0.046061002
0.059579 -0.01565 0.079397999
0.071213998 0.065710999 0.037524998
0.047607001 0.086841002 0.084225997
0.046473 0.088587999 0.084220998
0.047533002 0.088136002 0.08529
0.027728001 0.077258997 0.087701
0.067075998 0.058513999 0.050117001
0.067327 0.058148999 0.050434001
0.041035999 -0.021141 0.10419
0.041653998 -0.022253999 0.10528
0.040344998 -0.022253999 0.10515
0.042807002 0.075470001 0.085506
0.044131 0.075011998 0.086135998
0.043876 0.075067997 0.084735997
0.065241002 0.050393 0.065774001
0.064873002 0.051058002 0.065284997
0.019487999 0.0073735001 0.086119004
0.020397 0.0057625002 0.086540997
0.0076787998 0.00064906001 0.092428997
0.0095402999 0.00073544 0.092060998
0.0084314998 0.00071687001 0.091801003
-0.02166 0.013338 0.11802
-0.022504 0.01324 0.11753
0.045692999 0.10189 0.056430999
0.071974002 0.025766 0.059034999
0.072208002 0.025919 0.058527
0.071787 0.026711 0.058952998
0.040920001 -0.028746 0.048221
0.0095969997 0.013573 0.11665
0.069969997 0.057291999 0.052754
0.069237001 0.056611001 0.052875999
0.089873999 0.062272001 0.012402
0.091035001 0.063115001 0.011999
0.09014 0.062249001 0.013018
0.060256001 0.00055547 0.088894002
0.059769999 8.3118997e-05 0.088985004
-0.0087783001 0.015675001 0.11583
0.067753002 0.024359999 0.064401001
0.065875001 0.024589 0.064231001
0.040530998 0.070421003 0.094696999
0.039905999 0.069073997 0.095141001
0.057236999 0.010425 0.12464
0.056915 0.010068 0.12461
0.048145 -0.024522001 0.079729997
0.048728999 -0.024188999 0.080213003
0.048136 -0.023112001 0.079962999
0.015454 0.027737999 0.095522001
0.015705001 0.027633 0.095380999
0.016593 0.027357999 0.095991999
0.031849999 0.11338 0.063096002
0.031226 0.11505 0.064041004
0.0036801 -0.00048798 0.087416001
0.051529001 0.087627999 0.065522999
0.027897 -0.010098 0.084748998
0.027422 -0.0099512003 0.084337004
0.03015 -0.0092634 0.081068002
0.081203997 0.066807002 0.028605999
0.079983003 0.067491002 0.028873
0.045152001 -0.041535001 0.050336
0.044050999 -0.041811001 0.051015001
-0.00048307001 -0.0063983998 0.081923001
0.077032 0.073559001 0.037427001
0.0046509998 0.0022527 0.081430003
0.078611001 0.078548998 0.033925001
0.079424001 0.079278 0.03393
0.079485998 0.078208998 0.033656001
0.0061094998 0.0078344997 0.10485
0.078772999 0.036809999 0.063405998
0.077657998 0.036332998 0.064612001
0.078001 0.035309002 0.063428
0.011358 0.0061752 0.11509
0.017727001 0.025156001 0.085551001
0.063942 0.020164 0.10484
0.064287998 0.019663 0.10771
0.064260997 0.019090001 0.10603
0.073996 0.040925 0.038042001
-0.035766002 0.014829 0.11234
-0.034504 0.01581 0.11256
0.025624 -0.051298 0.043729998
0.025977001 -0.051713001 0.045465998
0.076977 0.046875 0.053521
0.077280998 0.047827002 0.052841
0.077172004 0.047913 0.054058
0.0033795 -0.018567 0.1048
0.038178001 -0.003584 0.13367
0.039173 -0.004156 0.13417999
0.013316 -0.018432001 0.11276
0.013909 -0.019323001 0.11336
0.03788 -0.030215001 0.053986002
0.037969001 -0.030141 0.05469
0.029564001 0.0020723001 0.1337
0.047710001 -0.039308999 0.050069999
0.041437 0.089318998 0.065208003
0.041166998 0.088538997 0.065174997
0.065458 -0.0023529001 0.10629
0.081207 0.067310996 0.097650997
0.082286 0.068254001 0.098145999
0.021492001 0.063147999 0.083581999
0.021514 0.064548001 0.083843
0.021597 0.064255998 0.083097003
-0.0071820002 0.034813002 0.1152
-0.0078905998 0.035668001 0.11713
-0.0069941999 0.034887001 0.1159
0.054605 0.041090999 0.1041
0.055647001 0.040706001 0.1034
-0.0029159 -0.00056403998 0.073256001
0.065347999 0.035518002 0.042746998
0.065411001 0.035094999 0.040477
0.016222 0.022721 0.086839996
0.017198 0.024809999 0.087050997
0.017378001 0.023951 0.085449003
0.023345999 0.030044001 0.087269001
0.037284002 0.036945999 0.10869
0.0359 0.036497999 0.10861
0.055059999 -0.024041001 0.062641002
0.055571999 -0.024493 0.06278
0.042957 0.035551 0.11015
0.042596001 0.036359999 0.11035
0.0085846996 0.020199001 0.12368
0.045072999 -0.020679999 0.10919
0.045030002 -0.02069 0.10998
-0.0087905005 0.022876 0.10732
0.075983003 0.045894999 0.056584001
0.075861998 0.045761999 0.056260999
0.066907004 0.030274 0.047111999
0.066817999 0.029121 0.047637999
0.026071001 -0.040984999 0.034194
0.02593 -0.041067999 0.033817999
0.074488997 0.070178002 0.046204001
0.074427001 0.069563001 0.045619
0.075116001 0.069449998 0.047029
-0.0074495999 0.029812999 0.10838
-0.0067451 0.028627001 0.10748
0.017983999 0.011279 0.086199999
-0.0030064001 0.022565 0.12262
-0.0033284 0.021753 0.12136
0.064205997 0.018237 0.10082
0.063362002 0.018975999 0.10185
0.090940997 0.066495001 0.014206
0.091697 0.065329 0.013034
0.050838999 0.043692999 0.069844998
0.050296001 0.043733999 0.068875998
0.029129 0.028044 0.11977
0.029219 0.042431999 0.090626001
0.0094721997 0.024010999 0.10386
0.0089232 0.026056999 0.10344
0.0095034996 0.025266999 0.10355
-0.00057008001 -0.01556 0.098833002
-0.00053869002 -0.014498 0.097912997
0.028301001 0.032049999 0.081391998
0.027674001 0.031090001 0.081239
0.039972998 0.084270999 0.065217003
0.03861 0.084850997 0.065338999
0.087824002 0.060858998 0.044860002
0.049504999 -0.00090265 0.077527002
0.085924998 0.077156 0.026001001
0.084841996 0.077602997 0.026760999
0.031596001 0.022488 0.12718
0.057893001 0.099978998 0.064548999
0.058187999 0.10011 0.063398004
0.058485001 0.10005 0.063128002
0.091666996 0.079209 0.030417999
0.091066003 0.078039996 0.030780001
0.072807997 0.053815 0.034318
0.071906999 0.053296 0.035062999
0.063758001 0.039602999 0.092977002
0.064267002 0.038385998 0.091803998
0.064117998 0.038458001 0.091493003
0.022461999 0.032274999 0.10199
0.023089999 0.032161001 0.10343
0.048445001 0.095720999 0.081744999
0.048698999 0.096106 0.082438998
0.04834 0.096162997 0.081306003
0.044934001 0.020586001 0.12827
0.045242 0.021848001 0.12782
0.051598001 0.1111 0.068425
0.051706001 0.11008 0.069747999
0.080638997 0.043589 0.043983001
0.079590999 0.042583 0.044194002
0.080335997 0.043232001 0.042835999
0.062710002 0.056910001 0.084810004
0.027349001 0.058927 0.075695999
0.028328 0.057548001 0.075314999
0.058318 0.045944002 0.057337999
0.058818001 0.046107002 0.058835
0.041193001 -0.016248001 0.070175998
0.040895998 -0.017095 0.071309
0.059664 -0.017467 0.081178002
-0.01811 0.034481999 0.12041
-0.017339 0.034857001 0.12129
0.05094 0.049467001 0.097985998
0.052391 0.048629001 0.098765001
-0.012015 0.035014 0.11072
-0.011404 0.034727 0.11204
0.064562999 0.0086065996 0.094276004
0.057223 0.027310001 0.058408
0.059870001 0.032956999 0.048944999
0.040458001 0.085083 0.084826
0.054389998 -0.040002 0.059779
0.053560998 -0.040275998 0.059284002
0.033845 0.11575 0.061671998
0.058704998 0.038167998 0.048323002
0.058876 0.039232999 0.047572002
0.061666001 0.0048858002 0.089732997
0.062398002 0.0049099 0.090166003
0.035967 0.064470999 0.098880999
0.035211999 0.063409001 0.099505998
0.036382999 0.063708 0.099748999
0.057351999 -0.014809 0.099567004
0.056364998 -0.015031 0.098477997
0.039065 0.0078886002 0.13424
0.039987002 0.0079525998 0.13451999
0.039650001 0.0089367004 0.13433
0.0030030999 -0.016129 0.094162002
0.053482 0.0081561999 0.12849
0.026241001 0.033769 0.089686997
0.026306 0.033402 0.089093998
0.032040998 0.11308 0.055302002
0.031502999 -0.011023 0.13063
0.030619999 -0.010219 0.13111
0.030879 0.10518 0.049800001
0.0309 0.10498 0.049391001
0.059831999 0.040902 0.047846001
0.060201999 0.040553998 0.047026001
0.078167997 0.037783001 0.059682999
0.027802 -0.048795 0.056249
0.028441001 -0.049913 0.057262
0.028689999 -0.048962001 0.056628998
0.028499 -0.051208001 0.050583001
0.029480999 -0.051498 0.04984
0.029463001 -0.051383 0.050903
-0.012109 0.026515 0.10558
-0.012453 0.025886999 0.10544
0.049782999 0.014487 0.12939
0.051059 0.013869 0.12847
0.064838 5.4364999e-05 0.10162
0.064453997 -0.0012643 0.10197
0.063660003 -0.0015807 0.10082
0.051888999 0.032037999 0.061402
0.052683 0.033656999 0.061946001
0.046576001 -0.0035854999 0.074089997
0.049054999 -0.0030278999 0.074118003
0.058777001 -0.011486 0.096105002
0.050014999 -0.041320998 0.062829003
0.079453997 0.073983997 0.043478001
0.01784 -0.022940001 0.10636
0.0010166001 -0.0026171999 0.070428997
0.0015113 -0.0026928 0.071604997
0.016835 -0.0086575001 0.081862003
0.01136 -0.0046571 0.11172
0.010302 -0.0031969999 0.1124
0.011378 -0.0037052999 0.11189
0.055236001 0.029902 0.10853
0.055516001 0.029795 0.10867
0.042992 0.10069 0.076324999
0.042477001 0.10107 0.076633997
0.043972999 0.10124 0.077285998
0.047019999 0.097294003 0.081014998
0.046952002 0.099354997 0.081018999
0.045972999 0.099399 0.079921
0.011445 0.0061491998 0.11421
0.010178 0.0053714998 0.11247
0.010836 0.0056191999 0.11243
0.063463002 -0.0028229 0.11394
0.062766001 -0.0036211 0.11373
0.063332997 -0.0024927999 0.11376
0.046224002 0.030776 0.11854
0.025548 0.028712001 0.081689
0.030004 0.04964 0.094300002
0.029572001 0.049067002 0.095293999
-0.029498 0.012963 0.11553
0.011256 0.014175 0.095484003
0.011077 0.013688 0.095108002
0.0025992 -0.011518 0.073751003
0.0027081999 -0.012679 0.074326001
0.033661999 0.08038 0.068837002
0.032811001 0.078723997 0.069550999
0.045770999 0.035597999 0.067365997
-0.03187 0.010502 0.11681
-0.031546999 0.0098881004 0.11699
0.01829 -0.0043541999 0.082161002
0.019160001 -0.0045061 0.082820997
0.073519997 0.056442 0.054166999
0.0025034 0.00018998999 0.074121997
0.0012939 -0.0016345 0.074249998
0.0023225001 -0.0012825 0.074886002
0.020422 -0.023096001 0.096877001
0.011598 -0.014962 0.10876
0.011996 -0.014052 0.10979
0.001905 -0.0042184 0.094586
0.00056300999 -0.004129 0.094944
0.071635 0.06247 0.086714998
0.070396997 0.062604003 0.086975999
0.067005001 0.062247999 0.046907
0.065908 0.060573 0.046934001
0.066885002 0.060741998 0.047525998
0.055445001 -0.038881 0.058226001
0.054402001 -0.040096998 0.058161002
0.0032462999 0.029611999 0.12385
0.003794 0.030487999 0.12438
0.0028164999 0.030466 0.12421
0.044307999 0.0048016999 0.074469998
0.044681001 0.0036849 0.074249998
0.068871997 0.045138001 0.075615004
0.067340001 0.045159999 0.076154999
-0.024495 0.021359 0.12712
0.051807001 -0.021207999 0.084458999
0.014155 -0.0019263 0.11842
0.058377001 -0.014849 0.071592003
0.018087 0.014466 0.12586001
0.018890999 0.015596 0.12558
0.018441999 0.032212999 0.11194
0.0116 -0.0086049 0.11597
0.010518 -0.0080653001 0.11505
0.040784001 0.046298999 0.071222
-0.021567 0.032875001 0.11634
0.060380999 0.0018364 0.12141
0.059565999 0.0010432 0.12213
0.059703 0.00039353 0.12147
-0.015616 0.011913 0.11824
-0.0010402 0.026749 0.10773
-0.00093392999 0.025106 0.10837
-0.0017307 0.025916999 0.10809
0.026869001 -0.017383 0.12392
0.026784001 -0.014604 0.12517001
0.075492002 0.036966 0.072948001
0.074924998 0.036157001 0.073537998
0.074553996 0.035925999 0.073614001
0.087724 0.065702997 0.018293001
0.047788002 -0.019041 0.097478002
0.046886999 -0.019505 0.097747996
0.045997001 -0.019812999 0.097528003
0.038028002 -0.014482 0.12808999
0.017935 -0.017858 0.11774
0.018548001 -0.018436 0.1162
0.019902 -0.018232999 0.11713
0.049724001 0.1059 0.072182
0.051456001 0.10581 0.073418997
0.048508 0.031753998 0.11337
0.048615001 0.033117 0.11199
0.046340998 0.033484001 0.1137
0.03506 0.047804002 0.075854003
0.036626998 0.046071999 0.074917004
0.0071835001 -0.01484 0.078477003
0.0061594001 -0.01371 0.078803003
-0.0056385999 -0.0052165999 0.0766
-0.0053861002 -0.0062318998 0.075967997
0.071768999 0.053823002 0.054218002
0.072334997 0.054713 0.053130999
0.071461 0.055137001 0.053640999
-0.035845999 0.0093034003 0.12327
0.063450001 0.045047 0.084535003
0.063497998 0.046124 0.082828999
0.014557 -0.028720001 0.091029003
0.062959999 0.0027944001 0.091811001
0.063313998 0.0010569 0.092970997
0.0089175999 -0.0026710001 0.10849
0.0093516996 -0.0037829999 0.10908
0.072725996 0.061602999 0.034729
0.071970999 0.061282001 0.035587002
0.072020002 0.062756002 0.035413999
0.055583 -0.024529001 0.075871997
0.084191002 0.063835002 0.032166999
0.084174 0.061882 0.032767002
0.056857999 -0.012765 0.089533001
0.056648001 -0.013314 0.088582002
0.067611001 0.040421002 0.036954001
0.068783 0.041898999 0.037668001
0.068645 0.041271001 0.038338002
0.042925 -0.0058284001 0.074644998
0.042365 -0.0050905999 0.074656002
0.020568 0.027690999 0.12186
0.020055 0.027851 0.12185
0.020189 0.028974 0.12095
0.063132003 0.03819 0.094274998
0.062825002 0.038938001 0.095422
0.062977001 0.037615001 0.094818003
0.034129001 0.10641 0.053025
0.033116002 0.10573 0.052517999
0.0096311998 0.023700001 0.10319
0.062694997 0.016959 0.11397
0.062026002 0.015001 0.11623
0.062171001 0.015011 0.11447
0.028912 0.039104 0.088761002
0.053977001 0.046911001 0.072177
0.054065 0.048317999 0.073092997
0.028977999 0.017248999 0.079063997
0.029438 0.016508 0.078432001
0.028866 0.016053 0.077988997
0.054800998 -0.030475 0.065829001
0.054742999 -0.030383 0.065599002
0.037795998 0.096486002 0.075979002
0.03861 0.096717998 0.075622998
0.038052998 0.096198 0.075098999
0.0073453002 -0.02984 0.09206
0.0080722999 -0.028586 0.092643
0.0080313999 -0.028979 0.092501998
0.029278001 0.04126 0.088463001
0.028595001 0.040855002 0.089082003
0.0050824001 0.032170001 0.12219
0.042752001 0.045370001 0.10355
0.042498 0.045465998 0.10299
0.041703001 0.04586 0.1026
0.023495 0.060341001 0.079442002
0.023383001 0.0594 0.079985
0.060079999 0.049368002 0.083164997
0.051139001 -0.018939 0.11177
-0.001601 -0.019301999 0.11036
-0.0013276 -0.019130999 0.11015
0.010309 -0.019587001 0.10483
0.010556 -0.018619999 0.10623
0.0096602999 -0.018844999 0.10518
0.039331999 -0.042794999 0.063860998
0.039795 -0.042314999 0.064842999
0.039581001 -0.041937999 0.065001003
0.092777997 0.063075997 0.014803
0.092502996 0.063908003 0.015458
0.036373999 -0.043164998 0.059852
0.028338 0.024977 0.1239
0.027798999 0.023921 0.12391
0.028775999 0.024125 0.12504999
0.020993 -0.050278999 0.045518
0.019680001 -0.049306002 0.044992
0.022136999 -0.049729999 0.044256002
0.031640999 0.11539 0.061342001
0.077587999 0.031115999 0.067685001
0.077017002 0.032861002 0.067823
-0.024147 0.030409001 0.11198
-0.023257 0.030574 0.11351
0.031817999 -0.045607001 0.058447
0.03015 0.0040366999 0.074945003
0.030128 0.0020349 0.074689001
0.029108999 0.0031301 0.075065002
-0.0043676002 -0.0082432004 0.075479999
0.022262 -0.051895998 0.047343999
0.021592 -0.052087002 0.045269001
0.02221 -0.052549001 0.046806999
0.018157 -0.030231001 0.095077001
0.038628001 0.041441001 0.10511
0.039278001 0.040290002 0.10707
0.016602 -0.030179 0.089512996
0.056501001 0.050647002 0.082465
0.055858001 0.051773001 0.083081998
0.060332999 -0.002261 0.11918
0.060995001 -0.0011823 0.11896
0.022651 -0.0076094 0.12791
0.022474 -0.0091262003 0.12755001
0.044126999 0.048144002 0.10091
0.081748001 0.067129999 0.014928
0.08151 0.065195002 0.015256
0.0045959 -0.01267 0.10764
0.0059376 -0.011753 0.10653
0.0045508998 -0.012171 0.10612
0.062236998 -0.0041326 0.11371
0.062665001 -0.0039475998 0.11343
0.061776001 -0.0049401 0.11353
0.025900999 0.025059 0.12226
0.026613001 0.025023 0.12278
0.026546 0.025509 0.12096
0.036901001 0.043961 0.10111
0.037842002 0.043334998 0.10299
0.0056953998 0.035645001 0.11427
0.0064884 0.036049001 0.11445
0.042691 -0.00053591997 0.13479
0.042403001 -0.00034869 0.13477001
0.0045182998 -0.016152 0.079466999
0.016283 -0.021454001 0.11253
0.016392 -0.022297001 0.11185
0.09189 0.063216999 0.016039999
0.037937 -0.034802999 0.048413001
0.039303999 -0.035021 0.046808001
0.052331001 0.093818001 0.081456997
0.0077861999 0.0014267 0.072967
0.051638 0.10916 0.059703
0.052329 0.11086 0.060543999
0.052680001 0.10938 0.060419001
0.065089002 0.060263999 0.043629002
0.072301999 0.028082 0.053243
0.074176997 0.029312 0.053654
0.079421997 0.076352 0.038778
0.079023004 0.077463001 0.038798001
0.079535998 0.077972002 0.038786002
0.027900999 -0.016455 0.12512
0.0539 0.038718 0.056299001
0.053204998 0.039967 0.057776
0.053794999 0.039788999 0.056598999
0.081502996 0.051279999 0.036977001
0.082852997 0.051784001 0.037142999
0.082774997 0.049901001 0.037873998
0.064634003 0.034961998 0.044702001
0.065194003 0.035907999 0.044195998
0.065871999 0.033665001 0.043396998
-0.021062 0.025924999 0.12868001
0.089648999 0.074602 0.023914
0.090706997 0.074112996 0.024180001
0.090967998 0.074272998 0.023009
0.059769999 0.018985 0.083760001
0.059953 0.018414 0.085092999
0.045019999 0.073835999 0.082699001
0.045660999 0.073080003 0.084039003
-0.0089395996 0.0163 0.11966
-0.0075301998 0.017015999 0.12026
0.044856999 -0.0096319001 0.12977
0.058938 -0.010568 0.11389
0.059227001 -0.0095846998 0.11457
0.058591999 -0.010638 0.11471
0.076618999 0.062666997 0.088615999
0.075479999 0.063695997 0.088909999
0.091517001 0.072797999 0.033987001
0.053523 -0.021824 0.061315
0.053895999 -0.020799 0.062723003
0.060527999 -0.0088288002 0.080035999
0.059757002 -0.0078250002 0.079329997
0.059629999 -0.0096044997 0.079880998
0.079493999 0.068060003 0.0277
0.076387003 0.030324999 0.062419999
0.020609001 -0.020605 0.086900003
0.019226 -0.020442 0.08602
0.020231999 -0.020873999 0.08647
0.059186 0.024087001 0.10929
0.059648 0.022644 0.10935
0.037175 -0.049858999 0.047175001
0.036260001 -0.049828 0.046631999
0.036146 -0.048776001 0.047479
0.036157999 0.081358001 0.067273997
0.034788001 0.081574999 0.067155004
0.035595998 0.082538001 0.06724
0.052898001 0.011194 0.07886
0.052944999 0.011855 0.080227003
0.088995002 0.082292996 0.041924998
0.061452001 0.018952001 0.11312
0.062204 -0.0074530998 0.098713003
0.064731002 0.059018999 0.044861998
-0.027896 0.0063784998 0.11967
0.051348999 0.014753 0.12831999
0.016341999 0.0056795999 0.12423
0.014528 -0.020593001 0.10699
0.093248002 0.064800002 0.013145
0.091833003 0.063174002 0.011737
0.092664003 0.064390004 0.011419
0.023352999 0.01726 0.12657
0.022313001 0.018074 0.12555
0.021880999 0.017673001 0.12603
0.055390999 -0.012998 0.11519
0.052462 0.042753 0.067929998
0.051236 0.042684 0.066918999
0.050705999 0.041733 0.067489997
0.024511 -0.0045221001 0.083410002
0.025216 -0.0040274002 0.082978003
0.025926 -0.0041004 0.083237
0.050554 -0.010338 0.12659
0.049757 -0.010497 0.12729
0.048962001 -0.011191 0.12802
0.020878 0.024765 0.083212003
0.02232 0.024532 0.082695998
0.020785 0.023853 0.082989
0.0037014999 -0.01737 0.089799002
0.0032206001 -0.017228 0.090030998
0.0037553001 -0.018098 0.089691997
0.032759 0.035716999 0.10781
0.032832 0.03562 0.10628
0.040917002 0.10413 0.050974999
0.040640999 0.10564 0.050949
0.080448002 0.073875003 0.044294
0.011877 -0.012908 0.11222
0.011416 -0.012104 0.11238
0.091995001 0.074468002 0.030629
0.040153001 -0.044096 0.042135999
0.038396999 -0.044020001 0.042397
0.038814001 -0.043517999 0.040251002
5.6057001e-05 -0.0051318998 0.087876998
0.00058301003 -0.0049296999 0.088629998
0.00013145 -0.0043040998 0.087231003
0.036116 -0.032641999 0.064608
0.036116 -0.031778999 0.065438002
-0.021607 0.027828 0.12849
0.064727999 0.025520001 0.080246001
0.064186998 0.025736 0.079402998
0.017045001 0.014046 0.084294997
0.016205 0.015073 0.084670998
-0.033856999 0.014104 0.12449
-0.033668999 0.012825 0.12485
-0.032605998 0.013908 0.12496
0.033944 0.040576998 0.1033
0.021816 0.067527004 0.088441998
0.017804001 0.029948 0.12116
0.013025 -0.024369 0.089524001
0.013526 -0.025614999 0.090593003
0.059351999 -0.015083 0.084840998
0.058804002 -0.016651999 0.083810002
0.059137002 -0.013839 0.071892001
0.059142999 -0.014463 0.072094999
0.0055868998 -0.0020333 0.1016
0.0049982001 -0.0012664 0.10082
0.0047066002 -0.0024702 0.10143
0.028385 0.049210001 0.083036996
0.029310999 0.049240001 0.081455998
0.065020002 0.027468 0.086827002
0.064248003 0.026958 0.086778
0.0098879002 -0.028663 0.088519998
0.030464999 -0.016925 0.084429003
0.031252 -0.017255999 0.083343998
0.031234 -0.01705 0.084013999
0.051155001 -0.017959001 0.093635999
0.010064 0.0018851 0.10213
0.058352999 -0.01159 0.094940998
0.057649001 -0.012847 0.095154002
0.057852998 -0.012996 0.095469996
-0.0029927001 0.022345001 0.11197
-0.0018488 0.022877 0.11087
0.027675999 -0.053118002 0.047274001
0.026339 -0.052859999 0.047596
0.041219 -0.019662 0.090278
0.042473 -0.019703001 0.089293003
0.041719999 -0.019698 0.090081997
0.037797 0.050657 0.074597999
0.022665 0.030745 0.11216
0.045221001 0.081582002 0.082532004
0.044725001 0.081942998 0.082365997
0.045194998 -0.0037928 0.075260997
0.054536 -0.029457999 0.068880998
0.012074 -0.012411 0.076972999
0.048362002 -0.020839 0.055592999
0.021813 0.032122999 0.098052002
0.022159999 0.031631999 0.097551003
0.046854001 -0.013673 0.063465998
0.046438001 -0.012851 0.064828001
0.047979001 -0.012625 0.064153001
0.047175001 0.093955003 0.062968001
0.046615999 0.094979003 0.063754
0.049137 -0.0063268002 0.069486
0.080659002 0.061034001 0.094471999
0.080476001 0.061227001 0.094719999
-0.0039839 0.024657 0.12412
0.066008002 0.027499 0.051522002
0.066233002 0.026674001 0.052191
0.0045166002 0.017082 0.11642
0.0046711001 0.017696001 0.11836
0.0044419002 0.017147001 0.11744
0.0013006 -0.0015349 0.086643003
0.050503001 -0.027525 0.075938001
0.049856 -0.027021 0.077289999
0.049780998 -0.028487001 0.074816003
0.0513 0.052374002 0.080499999
0.050902002 0.051068999 0.079231001
0.032117002 0.0044253999 0.072429001
0.091003999 0.069761999 0.016412999
0.090605997 0.067737997 0.015853999
0.090203002 0.068814002 0.016768999
0.055643 -0.0042869998 0.075728998
0.056263998 -0.0053134998 0.075107001
0.055385999 -0.0053190002 0.074345
0.043276999 -0.042288002 0.065306
0.035455 0.074908003 0.070473999
0.063966997 0.03238 0.094747998
0.065012001 0.031353001 0.094930999
0.029867001 0.051116001 0.078267001
0.030509001 0.049897999 0.079929002
0.02966 0.051743001 0.079731002
0.0060867001 0.02774 0.10492
0.0061981999 0.026079001 0.10524
-0.026494 0.023428001 0.10936
0.065415002 0.015259 0.10016
0.075452 0.031417001 0.051259998
0.074550003 0.031024 0.049541999
0.074726 0.031895 0.049895
0.058633 0.10582 0.070318997
0.057603002 0.10654 0.071117997
0.057827 0.10609 0.071213
0.050450999 -0.017804001 0.11276
0.054366998 -0.0069239 0.072097003
0.059648 0.041522998 0.048737001
0.087557003 0.055209 0.044943999
0.055544 0.025193 0.06662
0.055383999 0.024795 0.067362003
0.011752 0.026140001 0.10303
0.013307 0.027046001 0.10391
0.03018 0.032005999 0.11611
0.030486001 0.031704001 0.11652
-0.0097762998 -0.021212 0.11422
-0.0097289002 -0.020207001 0.1137
0.013818 -0.0060467999 0.077950001
0.014538 -0.0053357999 0.078868002
0.015239 0.026385 0.092005
0.051734 -0.041914001 0.061971001
0.051610999 -0.042954002 0.060825001
0.053009 -0.042151999 0.061319999
0.050266001 -0.027649 0.073959999
0.049460001 -0.027480001 0.074450001
0.031567998 0.056558002 0.075117998
0.059684999 -0.0070854002 0.083213001
0.059675001 -0.0075758998 0.08461
0.059904002 -0.0078718001 0.083648004
0.04648 0.058366999 0.095721997
0.064181998 0.033468999 0.094691001
0.045937002 0.071263 0.085316002
0.045986999 0.071037002 0.084887996
0.081735 0.076334998 0.023907
0.081775002 0.076024003 0.023461999
0.081664003 0.076119997 0.022818999
0.053631 0.028774001 0.062714003
0.053158998 0.029028 0.063074999
0.082353003 0.054641001 0.036238
0.021144999 -0.025489001 0.10787
0.059051 -0.0082676997 0.085642003
0.049463 0.099973999 0.059799001
0.047430001 0.099913001 0.059987001
0.048629999 0.099756002 0.059981
0.06346 0.050535001 0.061671998
0.064406 0.050678 0.063045003
0.051121 0.0077689998 0.12863
0.049982 0.0075197001 0.13057999
0.050558001 0.006972 0.12991001
0.032745998 0.052088998 0.076715998
0.033413999 0.051785 0.076548003
0.034132998 0.051002 0.076048002
0.071350001 0.060686 0.085801996
0.077707998 0.039239999 0.062509999
0.077546 0.039517 0.061602999
0.060295001 0.047244001 0.059252001
0.0093483999 0.0013984001 0.10985
0.0097728996 0.0020628001 0.10999
0.010746 0.0011934 0.11092
0.038775999 0.027651001 0.073463999
0.047550999 0.049091998 0.099219002
0.047977999 0.049807001 0.098582998
0.047501002 0.051268 0.099307999
0.075985998 0.072171003 0.036761999
0.075092003 0.072107002 0.037413001
0.046847999 0.098788001 0.064735003
0.012129 -0.016767001 0.080320001
0.072871998 0.029022001 0.072747998
0.081055999 0.065907001 0.015544
0.020740001 -0.010466 0.084257998
0.019447001 -0.011263 0.083939999
0.035835002 0.036357999 0.070895001
0.0086508999 -0.041875001 0.090957999
0.0091316001 -0.040785 0.092933998
0.008959 -0.040977001 0.091516003
0.045417 -0.019323001 0.058708001
0.046292 -0.018307 0.058625001
0.045871999 -0.018539 0.057817999
0.030926 0.086958997 0.071000002
0.029331001 0.069637001 0.071523003
0.028167 0.068533003 0.071895003
0.089492999 0.062853001 0.038685001
0.088384002 0.061528001 0.039152998
0.024402 -0.045412999 0.040312
0.025893001 -0.045495 0.040612999
0.088413 0.058938999 0.041363999
0.089059003 0.059489001 0.042045999
0.076679997 0.041161001 0.040151998
0.077055 0.041278999 0.038226999
0.076888002 0.042020999 0.039914001
0.076580003 0.070849001 0.034265999
0.061657 0.049495 0.062675998
0.060527001 0.049377002 0.064364001
0.02878 -0.01215 0.084177002
0.077036001 0.045497999 0.053443
-0.0062857 -0.019123999 0.10111
-0.0064669 -0.018921999 0.10134
0.063210003 -0.0043349001 0.10288
0.090788998 0.070519999 0.018521
0.091018997 0.070721999 0.01771
0.090191998 0.071708001 0.019425999
0.015191 -0.031886 0.097103
0.069461003 0.063610002 0.087429002
0.069647998 0.063924998 0.087656997
0.070040002 0.063667998 0.087064996
0.015266 0.010957 0.089699
0.022530001 0.031339001 0.10379
0.021880999 0.031603999 0.10303
-0.0013924 -0.0073003001 0.088064
0.031028001 -0.023085 0.11054
0.0069745998 -0.012347 0.10612
0.0090635 -0.012146 0.10718
0.0088860998 -0.011162 0.10821
0.030771 0.082583003 0.069889002
0.030136 0.083650999 0.069323003
0.031126 0.081854999 0.070099004
0.033034999 -0.039016999 0.040422998
0.032889999 -0.038371 0.039682999
0.0054372 0.021454001 0.10634
0.0066932002 0.02177 0.10494
0.0071624001 0.020591 0.10607
0.052421 -0.029549999 0.071163997
0.078001998 0.037347 0.0561
0.077744 0.038777001 0.055103999
0.0070586 0.0025319001 0.1073
0.059916999 0.052437998 0.092628002
0.058246002 0.051520001 0.092748001
0.078054003 0.038667001 0.050748002
0.077007003 0.037686002 0.050218001
0.077486001 0.039917 0.049426999
0.057271998 0.091422997 0.073624998
0.090233997 0.065817997 0.025664
0.089611001 0.064845003 0.024952
0.090493001 0.065658003 0.024751
0.036125999 -0.027412999 0.066790998
0.037448 -0.026861999 0.065206997
0.057719 0.099114001 0.065306999
0.057372998 0.098278999 0.065194003
0.020883 -0.0076525998 0.12650999
0.045269001 0.062437002 0.095702998
0.068060003 0.063257001 0.085547
0.069806002 0.063992999 0.086355001
0.069256999 0.061863001 0.085418999
0.035218999 0.042715002 0.076145999
0.035983998 0.044101998 0.075175002
0.035672002 0.043086998 0.074229002
-0.014154 0.035721 0.12192
-0.014114 0.035068002 0.12278
0.040029999 0.086790003 0.065755002
0.042417999 -0.035969999 0.047047999
0.042043 -0.034657001 0.046831001
0.053215001 -0.0032746999 0.12774
0.053068001 -0.0036076 0.12766001
0.053027999 -0.0040171002 0.12726
0.032012999 -0.040008999 0.036812
0.032253001 -0.040881 0.035429001
0.035004001 0.004005 0.071988001
0.033505999 0.0042265002 0.072636999
0.076456003 0.044059001 0.036403999
0.075530998 0.045077 0.035443
0.076480001 0.045164 0.036082
0.055032 0.092403002 0.066367999
0.055973001 0.091673002 0.066629998
0.05443 0.091926999 0.065096997
0.038171999 0.077748001 0.069513001
0.038616002 0.078199998 0.068612002
0.039324999 0.078271002 0.069660999
0.03915 -0.033895001 0.047205001
0.040417999 -0.034007002 0.046753
-0.021274 0.023507001 0.10744
0.028306 -0.0091629997 0.083596997
0.028375 -0.0093331002 0.084338002
0.047510002 -0.028549001 0.049183
0.0074085002 0.010342 0.10999
0.0070449002 0.0080259005 0.10938
0.018487999 0.032303002 0.1174
0.01825 0.031716999 0.11892
0.018891999 0.032104 0.11699
0.053745002 -0.025055001 0.055576999
0.053156 -0.025573 0.054836001
0.078295 0.067254998 0.092864998
0.077708997 0.067391001 0.093888998
0.0062949001 -0.00068155001 0.072509997
0.0057969 0.00011033 0.072705001
0.0066058999 0.00019394 0.072786003
0.048716001 -0.019817 0.10498
0.044119999 0.060178 0.098402001
0.043563999 0.061138999 0.097874001
0.042998999 0.062286001 0.097782999
0.031934001 -0.038332 0.041641001
0.085827999 0.065820999 0.02922
0.04042 -0.020902 0.1185
-0.0084584998 -0.015426 0.11171
0.036017999 0.056074999 0.074304998
0.037312999 0.057415999 0.074036002
0.037330002 0.056054998 0.074326999
-0.0046063 -0.017401 0.10101
-0.0033066999 -0.017526999 0.10202
-0.0030191999 -0.017372999 0.10051
0.070699997 0.066583999 0.043226
0.029184001 0.059069999 0.096996002
0.029510999 0.057620998 0.097609997
0.066578001 0.051461998 0.057964999
0.066643 0.050588001 0.058989
0.067083001 0.051346999 0.059540998
0.064475998 0.058444999 0.084210001
0.034173001 -0.020422 0.12233
0.060222998 -0.0080677001 0.079678997
0.051656 0.10373 0.076389998
0.019060999 -0.0058853002 0.12534
