# .PCD v0.7 - Point Cloud Data file format
VERSION 0.7
FIELDS x y z
SIZE 4 4 4
TYPE F F F
COUNT 1 1 1
WIDTH 1561
HEIGHT 1
VIEWPOINT 0 0 0 1 0 0 0
POINTS 1561
DATA ascii
-0.0065795002 0.045600001 0.12401
-0.016858 0.11806 0.11134
-0.018479001 0.11905 0.11077
-0.0094435001 0.064225003 0.10861
-0.0095790001 0.065365002 0.11097
0.054969002 0.12651999 0.076286003
-0.00023283 0.028956 0.10455
0.044739 0.11236 0.11771
0.052418999 0.12536 0.080436997
0.022778001 0.077829003 0.099385001
0.022598 0.077293999 0.099422
0.023297001 0.078567997 0.1009
0.0062377998 0.12499 0.14225
0.040527999 0.027747 0.11209
0.040252998 0.027690001 0.11139
0.011163 0.11779 0.064461999
0.01349 0.1472 0.082732998
-0.0093724001 0.064691 0.12565
-0.010061 0.063895002 0.12534
-0.037475001 0.12466 0.094838999
-0.040614001 0.11179 0.085726
-0.0012262 0.024976 0.10461
0.056683 0.039448999 0.11525
0.057011999 0.040948 0.11464
-0.010654 0.098020002 0.11112
-0.048590999 0.13021 0.084461004
-0.0031687999 0.13788 0.096383996
0.019916 0.091761 0.13718
0.027442999 0.13124 0.13984001
-0.016757 0.047533002 0.11155
-0.017044 0.10962 0.10205
0.026531 0.04927 0.1375
0.0023560999 0.091854997 0.13267
0.0059691998 0.11305 0.1459
0.0070389998 0.12461 0.14475
0.054818001 0.041629001 0.11544
0.054359 0.042105999 0.11402
-0.048895001 0.13485 0.080817997
-0.015957 0.15182 0.090544999
0.0019152 0.025912 0.10712
0.0032736 0.025261 0.10642
0.056635998 0.0061021 0.10702
0.056561001 0.0089582 0.10715
0.058093 0.0078282002 0.10768
0.023769001 0.10469 0.089055002
-0.016550999 0.0044295001 0.10824
0.034956999 0.11322 0.095091999
0.036325 0.11322 0.095867001
0.014186 0.14444999 0.12835
0.012813 0.14447001 0.12714
-0.0085124997 0.060649 0.12861
-0.0086348001 0.060780998 0.12637
-0.010037 0.060320999 0.12729999
0.030439001 0.066616997 0.10118
0.029784 0.065095 0.10117
0.055537999 0.15463001 0.075347997
-0.044799 0.12263 0.10146
-0.010469 0.11606 0.133
-0.01061 0.11546 0.13289
-0.0085520996 0.11654 0.13315
0.054997001 0.12932999 0.071432002
0.061964002 0.13552999 0.067671999
0.047924999 0.010185 0.094933003
0.014897 0.063612998 0.12801
-0.017192001 0.11749 0.11662
0.016042 0.12054 0.088545002
0.01653 0.12065 0.089872003
0.0024141001 0.070389003 0.12955999
-0.053056002 0.11221 0.088035002
0.027353 0.062962003 0.10455
0.029355001 0.061926 0.10423
0.063933 0.014596 0.10155
0.06256 0.01548 0.099803999
0.062918998 0.015875001 0.099280998
0.046078999 0.051059999 0.092807002
0.046124998 0.051068999 0.092625998
0.012341 0.13 0.075034998
0.056299999 0.034997001 0.11803
0.055923 0.035091002 0.11811
0.047479998 0.0046155001 0.11754
0.061457001 0.12605999 0.072520003
0.061848 0.12656 0.072705001
0.036756001 0.057116002 0.11696
0.036844 0.057367001 0.11648
0.0015381 0.1131 0.079287998
0.0012436 0.11555 0.080480002
0.070339002 0.13022 0.080187
0.057783999 0.039464999 0.099385999
0.058515001 0.038033001 0.10036
0.060129002 0.14742 0.062240001
0.016350999 0.099679001 0.091647997
0.014533 0.076876 0.098720998
0.050515998 0.1089 0.094986998
-0.0074911001 0.035172001 0.10416
0.055535 0.13376001 0.093041003
0.012063 0.085845001 0.097321004
0.012355 0.085646003 0.098506004
0.011273 0.086007997 0.097272001
0.048230998 0.067328997 0.097144
0.043122001 0.12338 0.097749002
0.043781001 0.12295 0.094332002
0.056807999 0.14011 0.074003004
0.056232002 0.13705 0.074212998
-0.0045455 0.14174999 0.085330002
-0.0023425999 0.14562 0.088349
0.010234 0.069411002 0.10399
-0.013915 0.028546 0.10974
0.0094980998 0.14054 0.13079999
0.0098545002 0.14098001 0.13305999
-0.0046295002 0.098829001 0.13579001
-0.0031089999 0.098667003 0.13579001
-0.044520002 0.11369 0.084066004
-0.043605998 0.11506 0.084527999
0.0042114002 0.10808 0.095005997
0.026132001 0.12398 0.094478004
0.053142 0.13177 0.092518002
0.053454999 0.13260999 0.093388997
0.031647 0.10359 0.093245998
0.031892002 0.10447 0.093817003
0.0070529999 0.099304996 0.1418
-0.013393 0.030727001 0.12113
-0.012656 0.030851001 0.11997
0.057610001 0.024892 0.10643
0.057270002 0.025198 0.10539
-0.0064126002 0.12807 0.13146
-0.032501999 0.10262 0.095687002
-0.03303 0.10286 0.093927003
-0.032046001 0.10264 0.095425002
0.050657999 0.0071859998 0.10526
0.050503001 0.0063061998 0.10391
0.0054552001 0.090262003 0.13245
0.056540001 0.0068108998 0.11083
0.056402002 0.0058233002 0.11255
0.055585999 0.0062246001 0.11154
0.052494001 0.0078998003 0.10178
0.050887998 0.0078999996 0.10159
0.058580998 0.13111 0.095422
0.059191 0.13011 0.096299998
0.053374998 0.067172997 0.11534
0.053047001 0.065702997 0.11594
-0.0072022001 0.10427 0.13478
-0.0067301001 0.10369 0.13514
-0.023094 -0.0011495 0.10044
-0.023614001 -0.0010159001 0.10087
-0.0038620001 0.14272 0.086177997
0.054136001 0.0073022 0.10921
0.055255 0.0068434998 0.11173
0.024724999 0.066136003 0.13333
0.051718 0.067454003 0.11856
0.036800001 0.050606001 0.10714
0.038311999 0.04975 0.10618
0.013995 0.090689003 0.095362999
0.014561 0.092698 0.095223002
-0.011631 0.057576999 0.10807
-0.00077534001 0.093944997 0.096816003
0.00028162001 0.093231998 0.096639998
0.0045722001 0.015644001 0.11291
0.0073004998 0.013987 0.11262
-0.032140002 0.11624 0.1127
0.03314 0.069773003 0.12718
-0.0026972 0.11858 0.075805001
-0.0021333001 0.11846 0.078241996
-0.0024865 0.095709004 0.096970998
0.016039999 0.1211 0.078699
0.055594001 0.034878999 0.098177001
0.0037602 0.11362 0.074818
-0.0011811 0.0094641997 0.12373
-0.0016464 0.0076068002 0.12301
0.027747 0.14089 0.12248
0.066572003 0.12425 0.078120001
0.010983 0.14464 0.10273
0.0094371997 0.14625999 0.1038
-0.050158001 0.11443 0.10411
0.041347001 0.072711997 0.099101998
-0.033833001 0.11206 0.11373
-0.032001998 0.11167 0.11533
-0.032937001 0.11358 0.11426
0.015272 0.056942999 0.11696
0.053844001 0.069360003 0.10472
0.053628001 0.070046999 0.10695
0.0036609999 0.042203002 0.11639
0.0044570002 0.042654 0.11587
0.020888999 0.11057 0.090800002
0.025551001 0.11706 0.094663002
0.0253 0.048955001 0.14068
-0.016450001 0.053959001 0.1197
0.027656 0.078022003 0.099652
-0.038245 0.10277 0.10299
0.048397001 0.0077503002 0.098369002
0.048927002 0.0079557998 0.098921001
0.019048 0.083541997 0.096404001
0.018079 0.083476 0.096046001
0.0041681002 0.081552997 0.13011999
0.040148001 0.040215999 0.10806
0.041216001 0.12077 0.12782
-0.00041832001 0.027632 0.12525
0.00096837 0.029370001 0.12503999
0.020174 0.13940001 0.090203002
0.028960999 0.083604001 0.10227
0.028185001 0.084236003 0.102
0.023721 0.053376999 0.14102
0.022905 0.052574001 0.13998
0.038575999 0.12497 0.10339
0.037223998 0.12617999 0.10141
0.022141 0.13508999 0.10062
0.025145 0.061434999 0.10666
0.025648 0.062111001 0.10603
-0.010011 0.12204 0.13364001
-0.0077511999 0.1205 0.13401
0.040844999 0.12626 0.11356
0.041700002 0.12741999 0.11399
0.031886 0.067803003 0.12763
0.03076 0.065803997 0.12682
0.00020307 0.080811001 0.11612
0.05333 0.021816 0.10362
0.054575998 0.020723 0.10407
0.054340001 0.02172 0.10455
0.0018967 0.049031001 0.10755
-0.00367 0.14487 0.095216997
-0.0047495002 0.14448 0.095035002
0.059905998 0.12001 0.075795002
0.060132999 0.12133 0.075544998
0.058878999 0.12002 0.074473001
0.018711001 0.14511 0.085438997
0.027948 0.10608 0.14256001
0.026241999 0.10504 0.14263999
-0.019793 0.11675 0.10384
-0.020258 0.11668 0.10594
0.00459 -0.0013684999 0.1191
-0.0095274001 -0.0019273 0.11875
-0.0089352001 -0.0013315 0.11913
0.017758001 0.081073001 0.13541999
0.016736999 0.080224998 0.1363
0.017894 0.080636002 0.1358
0.049679 0.060272001 0.092321001
0.051019002 0.061059002 0.093566999
0.034382001 0.12951 0.10454
0.034630999 0.12829 0.10598
0.040623002 0.12651999 0.12574001
0.019950001 0.14351 0.086096004
0.0043521998 0.042612001 0.11464
0.049773 0.12227 0.081456997
0.050852001 0.12113 0.080444001
0.050498001 0.12099 0.080737002
-0.0033873001 0.13531999 0.11821
-0.0038184 0.13462 0.11751
0.050567999 0.12704 0.086446002
0.048967 0.12859 0.087789997
0.048960999 0.12843999 0.086635001
-0.011913 0.062968001 0.11539
0.038502 0.096821003 0.11046
0.038350999 0.097301997 0.11174
0.058104001 0.032345999 0.10375
0.058015998 0.033225 0.10489
0.033493999 0.10047 0.098527998
-0.0086196996 0.12891001 0.11314
0.022193 0.15838 0.079660997
0.048517 0.039393999 0.095461003
0.049527999 0.038871001 0.094522998
0.035718001 0.11584 0.13704
-0.017949 0.1068 0.10124
-0.014776 0.042785 0.11494
0.024623999 0.050852999 0.13989
0.053814001 0.12294 0.075530998
0.028049 0.13646001 0.1066
0.031831 0.055195998 0.13632999
0.049132999 0.10764 0.099570997
0.054884002 0.059494 0.095973
0.056024998 0.059615001 0.097295001
0.049295001 0.073701002 0.10446
0.0029883001 0.051511001 0.10544
-0.0092602 0.12927 0.12427
0.042098999 0.12462 0.099598996
0.031670999 0.056965001 0.13469
0.055339999 0.017123001 0.10292
0.054572999 0.018068001 0.10467
0.0076373001 0.10498 0.093842
0.0055698999 0.10479 0.092711002
0.032542001 0.13409001 0.10959
0.032024998 0.13462999 0.11006
0.031198001 0.13482 0.10975
0.0023950001 0.061014 0.10569
0.015792999 0.11989 0.083476
0.032347001 0.081146002 0.13027
0.033603001 0.081923999 0.13135999
0.049281999 0.046301998 0.094071001
0.049049001 0.046163999 0.093147002
0.048721001 0.046541002 0.091967002
0.037377998 0.084564999 0.11621
0.041786999 0.059657998 0.093970001
0.042785 0.059156001 0.093846001
0.00042647999 0.076692 0.12457
0.063818999 0.14753 0.071135998
0.0075114002 0.028264999 0.11441
0.055847999 0.13559 0.091770999
-0.010069 0.12026 0.13286
-0.039735999 0.12103 0.10406
0.050574001 0.1078 0.1064
-0.025102001 0.1143 0.11879
-0.024986999 0.11479 0.11797
0.053929999 0.01038 0.089043997
0.055048998 0.0098850001 0.088964
0.0086621 0.051403999 0.1236
0.0093719997 0.049584001 0.12376
0.029823 0.13267 0.13594
0.070946001 0.13258 0.082703002
0.041793 0.10841 0.1184
0.0427 0.11059 0.11893
-0.0028911999 0.1301 0.083279997
-0.033185001 0.11261 0.115
-0.019858001 0.10554 0.10193
-0.0024973999 0.12234 0.096258998
-0.0036382 0.12233 0.096431002
-0.006974 0.022518 0.12602
0.032997999 0.04933 0.14281
0.0086690001 0.090899996 0.097327001
0.016109001 0.082808003 0.13671
-0.014576 0.045827001 0.11723
0.022781 0.11629 0.14605001
0.015961001 0.076605998 0.13519999
0.017442999 0.076830998 0.13402
0.049380999 0.054683 0.093401998
0.049488001 0.055380002 0.091787003
0.061923999 0.12062 0.076996997
0.062634997 0.11958 0.076373003
0.062171001 0.12015 0.078019999
0.016481999 0.11238 0.14563
0.0027226 0.013416 0.1103
0.0023608 0.013305 0.11169
-0.0055233999 0.010359 0.12183
0.0085461996 0.12951 0.14241999
0.0082259001 0.12966999 0.14311001
-0.0082075996 0.11321 0.13519999
0.044628002 0.021748001 0.10772
0.038201999 0.085441999 0.12274
0.038146 0.085513003 0.12214
-0.052584 0.11315 0.094876997
-0.040325001 0.12599 0.092638999
-0.013567 0.041064002 0.11791
-0.0038176 -8.6209002e-05 0.12024
-0.0042448002 -0.00011172 0.12093
-3.0546998e-05 0.075916998 0.11339
0.0076338998 0.068860002 0.13085
0.055534001 0.0071820999 0.11768
0.055911999 0.0069566998 0.11804
0.012193 0.058426999 0.12594
0.050000999 0.13659 0.086883001
0.0018895 0.14226 0.11526
0.05996 0.031555999 0.11549
0.059172001 0.030404 0.11442
0.038291 0.057636 0.11919
0.054519001 0.051787 0.10813
0.056122001 0.052003998 0.10804
0.0078346003 0.10505 0.093881004
0.0092716999 0.10334 0.092625
0.0075436002 0.10286 0.093084998
-0.036499999 0.12264 0.10082
0.014035 0.089528002 0.13793001
-0.0094295004 0.045217 0.12291
-0.0071788002 0.043937001 0.12291
0.060299002 0.12748 0.071346998
0.068572998 0.12962 0.077285998
-0.010707 0.099964 0.10804
0.051575001 0.066969 0.096901
0.011733 0.141 0.087986
0.0020081 0.078135997 0.11266
0.0012367 0.078688003 0.1141
0.0013288 0.080275998 0.11426
0.045898002 0.027268 0.10168
0.0061963 0.10949 0.097456001
0.01764 0.077564999 0.13591
0.00081757997 0.086868003 0.11303
0.0045182002 0.11928 0.06233
0.011341 0.063100003 0.12987
-0.0024859 0.042282 0.12158
0.058651999 0.024637001 0.10535
0.049295999 0.13507 0.084707998
0.0075166002 0.0059557999 0.12212
0.0082901996 0.0064192 0.12294
0.014273 0.11965 0.071801998
0.02358 0.10512 0.14394
0.024367999 0.10523 0.14262
0.021548999 0.061786 0.13139001
0.017728999 0.060667999 0.12051
0.016372999 0.060375001 0.12083
0.018904001 0.060495 0.11885
0.0065275002 0.057803001 0.10513
0.0056579001 0.057025 0.10504
0.012721 0.14442 0.090806
0.048902001 0.066195004 0.094091997
0.042606 0.12418 0.1221
-0.043393999 0.12061 0.10314
0.039873999 0.097354002 0.11892
0.038941 0.097323999 0.1184
-0.013965 0.023917999 0.12035
-0.012286 0.023833999 0.11923
-0.012872 0.024282999 0.11975
0.015973 0.12609001 0.14563
0.051337 0.12449 0.10203
0.051424999 0.12437 0.10354
-0.0034610999 0.043315001 0.12249
-0.011016 0.060233999 0.10962
0.065018997 0.13951001 0.062514998
0.065240003 0.13790999 0.062167
0.06402 0.13770001 0.063285001
-0.0092687998 0.15132 0.091991
-0.01039 0.15129 0.092546001
-0.0076855998 0.1489 0.093498997
0.066454001 0.13665 0.073092997
-0.0019654999 0.047494002 0.10616
-0.013146 0.12138 0.10659
0.014279 0.094021 0.095274001
0.013373 0.095614001 0.094820999
-0.013189 -0.00060992001 0.1039
-0.012489 0.00058902003 0.1018
0.0080151996 0.078769997 0.1039
0.0072881998 0.078373 0.10427
0.0063085002 0.080347002 0.10398
-0.013586 -0.00033698001 0.097851001
-0.0072893999 0.1284 0.095870003
-0.0066132001 0.12867001 0.097263001
0.022050001 0.10952 0.091540001
-0.012911 -0.0016086 0.11149
-0.013046 -0.0019612999 0.10972
0.012672 0.057659 0.11263
0.056767002 0.053507999 0.1076
0.055466998 0.054090001 0.10818
0.055385999 0.054313999 0.10814
0.026211999 0.13000999 0.14058
0.016478 0.14580999 0.084503002
0.016062999 0.1442 0.083185002
0.015321 0.14631 0.082712002
-0.0040803002 0.14407 0.087889999
0.0016572 0.049834002 0.12856001
-0.0032579999 0.019196 0.12635
0.0086385999 0.070514001 0.13170999
0.023824001 0.15724 0.084454998
0.022183999 0.054228 0.13405
0.023244999 0.054338999 0.13501
0.021802001 0.054384999 0.13541
-0.0045824 0.13682 0.087503999
-0.0052045002 0.13465001 0.089374997
-0.026205 0.10555 0.11853
-0.024597 0.10453 0.11995
0.065044999 0.12349 0.09392
0.012752 0.080155 0.098091997
0.01318 0.081312999 0.099252999
0.039299998 0.031145001 0.10448
0.040181998 0.032060001 0.10651
0.040281001 0.032233 0.10603
0.055186 0.042847 0.11324
0.056099001 0.042617001 0.11291
0.016595 0.12239 0.081423
0.010998 0.084549002 0.098687001
0.0096942 0.083892003 0.10042
-0.031961001 0.11551 0.10983
0.027346 0.13891999 0.11314
0.02877 0.13823 0.11477
0.029308001 0.13873 0.11276
0.060837999 0.11897 0.096138999
0.059514001 0.12059 0.09505
0.059165001 0.12084 0.097765997
0.041060001 0.042782001 0.10862
0.041916002 0.10357 0.11459
-0.012481 0.054714002 0.12277
-0.012222 0.054203 0.12287
0.060323998 0.025443999 0.10843
-0.0018799 0.13823999 0.10538
-0.0080982 0.00031415001 0.10461
0.0027294999 0.036701001 0.1172
0.043786999 0.030657999 0.10099
0.043264002 0.030314 0.10269
-0.012096 -0.00079567003 0.10714
-0.013735 0.11802 0.12218
-0.013091 0.11737 0.12092
-0.013913 0.052673001 0.10569
-0.013478 0.052455001 0.10553
0.012511 0.12289 0.069215
0.011746 0.12307 0.067512996
0.046528 0.10697 0.10783
0.04676 0.10654 0.10795
-0.0073127002 0.13153 0.11067
-0.00035617 0.11737 0.080605999
-0.0092521999 0.14697 0.095049001
-0.0091431998 0.14588 0.093832999
-0.048714999 0.12409 0.097245999
-0.047274999 0.12361 0.096663997
-0.049027 0.12424 0.095307998
0.041209001 0.068012998 0.095265001
0.054249998 0.14212 0.075033002
0.055055998 0.14343999 0.076481
-0.0019976001 0.10492 0.13873
0.038293999 0.13074 0.10692
0.038566001 0.13041 0.10759
0.058913 0.019222001 0.11238
-0.022297001 0.098145999 0.10856
-0.022312 0.099192001 0.10966
-0.0085907001 0.1393 0.093319997
-0.0081796004 0.14066 0.093363002
-0.053738002 0.11048 0.080669001
-0.053711001 0.10965 0.080286004
0.055062 0.057620998 0.095197998
0.038973 0.083890997 0.1141
0.00049509999 0.097961001 0.094471
0.00088541 0.097150996 0.093006998
0.032543998 0.076991998 0.099611998
0.032090001 0.076872997 0.099344999
0.041827999 0.098182999 0.11933
0.042417001 0.098425001 0.12015
0.033186 0.11975 0.1401
-0.0070169 0.098190002 0.10046
-0.0076982002 0.099958003 0.099095002
-0.0013978 0.11642 0.14049
-0.0019950001 0.11595 0.14199001
0.028982 0.067878 0.1287
0.00069968001 0.038254999 0.11675
0.058734 0.042188998 0.11108
0.058208 0.042617001 0.10949
-0.0099413004 0.0081385002 0.11064
0.057682 0.032846998 0.10108
0.057666998 0.03081 0.10049
-0.0083721997 0.10052 0.099307001
-0.0078266002 0.10143 0.10058
-0.0084595997 0.10227 0.099505998
-0.0062901 0.12814 0.089596003
-0.041370999 0.1039 0.10437
0.0013994999 0.043545 0.12304
0.031013001 0.064277999 0.10002
0.012857 0.062765002 0.12955999
0.020064 0.10037 0.090754002
-0.054575 0.12399 0.077485003
0.056031 0.066497996 0.10712
-0.042670999 0.1243 0.088846996
0.046165999 0.01349 0.11718
0.046684001 0.012626 0.11616
0.042916998 0.12201 0.11902
0.011883 0.12252 0.14492001
0.01191 0.12215 0.14568
0.040406 0.050023999 0.099986002
0.040302999 0.049155999 0.10037
0.0027978001 0.020666 0.10693
-0.0094887 0.13776 0.092357002
0.0066811 0.097328998 0.092744
0.054575998 0.009637 0.086714998
0.0037418001 0.1102 0.096014
-0.010224 0.001391 0.097153001
-0.011631 0.00061475002 0.096364997
-0.049320001 0.12842 0.069238998
-0.048914 0.13017 0.069412999
0.049010001 0.012847 0.12032
0.064613 0.0089662001 0.10007
0.041379999 0.10914 0.094053
-0.0097532002 0.022717001 0.10753
0.050005 0.032133002 0.11951
0.050025001 0.03019 0.12094
0.026149999 0.094816998 0.094183996
-0.020990999 0.0024220999 0.10195
0.017019 0.062760003 0.12695999
0.055204999 0.060625002 0.11418
0.052809 0.063352004 0.11479
0.053594001 0.060164001 0.11525
-0.015419 0.050806001 0.11973
0.0044823 0.085059002 0.10701
0.0035748 0.085267 0.10689
0.012257 0.060114998 0.10998
0.0026797999 0.033929002 0.10721
0.0012934 0.052687999 0.10365
0.0042857998 0.1437 0.12231
0.0032464 0.14466 0.12167
0.010786 0.11351 0.076119997
0.024320001 0.13772 0.13378
0.023843 0.14012 0.13395
0.059353001 0.035698999 0.11508
0.059590999 0.033615001 0.11495
-0.034226 0.10376 0.1097
0.028774001 0.049118001 0.15381999
0.020516001 0.10145 0.1432
0.038527999 0.12232 0.097346999
0.0057950001 0.13922 0.13263001
0.035429999 0.13361 0.1157
0.034913 0.13391 0.1158
0.056265999 0.025583001 0.11982
0.05624 0.025853001 0.11946
0.029271999 0.046891998 0.14426
0.029245 0.046812002 0.14601
0.036052998 0.069761999 0.12634
0.035749 0.070583999 0.12619001
-0.037687998 0.11645 0.10742
-0.037055001 0.11864 0.10613
0.020230001 0.15662999 0.081982002
0.022740999 0.066451997 0.1033
0.034623001 0.13224 0.10572
0.012436 0.052606001 0.11648
0.038766999 0.060858998 0.094599999
0.032658 0.086962998 0.13298
0.032191999 0.087270997 0.13262001
0.031603001 0.088128 0.13225
-0.0072452999 0.029662 0.12704
0.055314999 0.052919 0.11143
0.01334 0.14449 0.12985
0.048381001 0.12494 0.089086004
0.059365001 0.028081 0.10774
-0.0084028002 0.0039403001 0.12025
-0.014276 0.10301 0.10459
-0.013662 0.10261 0.10531
0.018087 0.091468997 0.13851
0.059051 0.11861 0.076875001
0.046558999 0.013415 0.11664
-0.024201 0.11229 0.11942
-0.023724999 0.11272 0.11965
-0.0022457 -0.0018819 0.11831
-0.0018793 -0.0010677 0.11821
-0.00033734 -0.0019336001 0.1207
0.019443 0.14033 0.13381
0.048551999 0.052538998 0.093772002
0.025283 0.091782004 0.098188996
-0.036006998 0.1244 0.095556997
-0.035200998 0.12444 0.094901003
-0.034242999 0.12386 0.096415997
0.050191998 0.046792999 0.11341
0.0011671 0.0038628001 0.1087
0.0016147 0.0030193001 0.10784
0.067805 0.12716 0.093814
0.065971002 0.12627999 0.094949998
-0.052517001 0.11237 0.071292996
0.021393999 0.065719001 0.13141
0.0062084999 -0.0002673 0.12054
0.0067444998 -0.00099623995 0.12253
0.0526 0.15612 0.072636001
-0.0054942002 0.13474 0.10879
0.040066998 0.078523003 0.10365
0.039174002 0.078575999 0.10349
0.038054001 0.07931 0.10311
0.038153999 0.050763 0.11302
0.045834001 0.018130001 0.10912
0.047933001 0.020997999 0.12009
0.046760999 0.019824 0.1198
-0.0052016 0.13458 0.12624
-0.0034874999 0.13595 0.12479
-0.0047641001 0.018914999 0.10831
0.033399999 0.13665 0.11564
0.0055785002 0.12197 0.059489001
-0.0065227998 0.014696 0.12383
0.026984001 0.046216 0.15113001
0.027448 0.046773002 0.15141
0.028651999 0.10571 0.090908997
0.026632 0.10379 0.090644002
0.027902 0.10646 0.091270998
0.025738001 0.11071 0.091209002
0.064305998 0.14038999 0.083617002
-0.032439999 0.099788003 0.10968
0.033957001 0.12272 0.13763
0.0017461 0.12952 0.076774001
0.061050002 0.013642 0.092698999
0.00064864999 0.040279999 0.11932
0.0012716 0.040731002 0.1187
0.0068870001 0.060529999 0.10588
0.0064516999 0.063744999 0.10559
-0.033511002 0.10246 0.11216
0.0093480004 0.1454 0.11821
0.056915 0.044705 0.097117998
0.056573 0.045226999 0.097652003
-0.010246 0.12436 0.10529
-0.012844 0.022674 0.11977
0.0035099001 0.017356999 0.11053
0.0038335 0.01785 0.11046
0.065555997 0.12827 0.074744001
-0.0061372998 0.10982 0.099823996
-0.0058514001 0.11163 0.098268002
0.062696002 0.14748 0.076232001
0.042973001 0.10674 0.12288
0.043047 0.10685 0.12217
0.02114 0.105 0.089731
0.057404999 0.018425999 0.11462
0.058710001 0.018696999 0.11516
-0.04163 0.12481 0.096294001
-0.0063924999 0.1433 0.096088
0.031227 0.10758 0.092897996
0.014785 0.14527 0.11136
0.014243 0.14606 0.11256
0.015524 0.14622 0.11034
0.010041 0.0018591 0.12125
-0.01154 0.12237 0.12887
-0.0090183001 0.12469 0.12134
0.041565999 0.076722004 0.11937
-0.055528 0.12118 0.072751001
0.040752001 0.080597997 0.11505
0.042272002 0.080825999 0.11661
0.028805999 0.094051003 0.13625
0.028689001 0.095983997 0.13556001
0.028991001 0.095476002 0.13586999
-0.049848001 0.10742 0.096405998
-0.050228 0.10844 0.093845002
-0.017875001 -0.0012389 0.11518
-0.017188 -0.0012718 0.11482
-0.019195 -0.0020939 0.11365
-0.0031884001 0.11802 0.13975
-0.0045443 0.11686 0.13970999
0.010024 0.091798998 0.098008998
0.037071001 0.10841 0.13409001
-0.015683999 0.055124 0.10873
0.014736 0.070441999 0.13268
0.013771 0.068676002 0.13180999
-0.012657 0.035365999 0.1054
-0.01109 0.036596999 0.10603
0.0077868998 0.095370002 0.094368003
-0.0055995001 0.044133 0.10471
-0.0046115001 0.044794001 0.10454
0.013942 0.10712 0.14583001
0.014702 0.10814 0.14578
0.053500999 0.041597001 0.095872998
0.053057 0.040872 0.094892003
0.0017997 0.083604001 0.11294
0.0024002001 0.083893999 0.11287
-0.017192001 0.049541 0.11374
-0.015822001 0.049201 0.11298
-0.016279999 0.050163001 0.11359
-0.011223 0.019096 0.11713
-0.050817002 0.11115 0.083578996
-0.048737999 0.11068 0.083517
0.053470001 0.1206 0.078068003
0.052953999 0.12075 0.077065997
-0.014674 0.030990999 0.10756
-0.015006 0.030382 0.10857
0.0063686999 0.054324999 0.10783
0.037776001 0.053098001 0.10142
0.033893999 0.065255001 0.12463
0.034343001 0.064387999 0.12377
0.034256 0.12231 0.096583001
0.033964001 0.12219 0.096706003
0.035567999 0.12037 0.095270999
-0.0093711 0.0043131001 0.12016
-0.0071504 0.0026238 0.12015
0.057418998 0.047508001 0.10364
0.011337 0.11104 0.093598001
0.0039464999 0.012562 0.12383
-0.011705 0.1236 0.12223
-0.013067 0.12337 0.12245
-0.00051504001 0.080862999 0.11821
-0.00049840001 0.081592001 0.11621
0.00062861003 0.11773 0.14322001
0.015934 0.13226999 0.083506003
0.00071014999 -0.0017808001 0.12108
0.00010209 -0.0018599 0.12143
0.053562999 0.0066195 0.10986
0.026825 0.10494 0.1435
0.038329002 0.060669001 0.12203
0.037519999 0.061675001 0.12156
0.039721999 0.061436001 0.12328
-0.011862 0.021857001 0.11092
0.0418 0.12167 0.12124
0.041722 0.12225 0.12273
0.041616999 0.12188 0.12177
-0.0014117 0.14364 0.091664001
0.0072979 0.064897001 0.13097
0.0086171003 0.063744001 0.13144
-0.013031 0.12515999 0.11466
0.064608 0.1259 0.095322996
0.067245997 0.12559 0.093837
0.067184001 0.013768 0.094011001
0.065125003 0.013917 0.095057003
0.01429 0.13624001 0.082395002
0.013886 0.13679001 0.082252003
0.014455 0.13773 0.082503997
0.018809 0.062445 0.10486
0.061686002 0.0081866002 0.10343
-0.011607 0.11763 0.10107
0.0039875 -0.00097663002 0.11203
0.0033712001 -0.00011843 0.11377
0.031434 0.13609 0.13378
0.026628001 0.11046 0.1453
0.024133001 0.10985 0.14489999
0.026143 0.12569 0.092850998
0.026334999 0.12726 0.092635997
0.03774 0.082579002 0.10688
-0.027733 0.10511 0.11712
0.038214002 0.074285999 0.12408
0.037197001 0.072369002 0.12411
0.038913 0.072558999 0.12493
0.015373 0.080674 0.13631999
0.016127 0.080619998 0.13574
0.050257999 0.024122 0.12088
0.050044 0.024347 0.12031
0.016816 0.14545999 0.091715999
-0.039592002 0.11246 0.085784003
-0.039687999 0.11461 0.086882003
0.049492002 0.023530999 0.10405
0.048819002 0.021189 0.10423
0.016009999 0.10012 0.090704001
-0.024377 0.11654 0.10513
-0.025704 0.11578 0.10391
-0.0024456 0.098444 0.13393
-0.0029011001 0.097012997 0.1355
-0.0034055 0.098714001 0.13456
0.058244001 0.028918 0.11668
0.022108 0.081104003 0.13463999
0.003366 0.094449997 0.13817
0.020467 0.067143999 0.1319
0.054003 0.14311001 0.080476001
-0.020295 -0.0028468 0.11234
-0.016834 -0.0021754 0.11109
-0.0091028996 0.069500998 0.12147
-0.046014 0.12989999 0.080343999
0.00082069001 0.071374997 0.10816
0.054242 0.017067 0.10041
0.034623001 0.090254001 0.10838
0.035268001 0.089523003 0.10784
0.034959 0.089709997 0.10763
0.065297 0.0098070996 0.10019
0.066009 0.010713 0.10038
0.0083681997 0.072668001 0.10437
0.0058781998 0.12544 0.068906002
-0.052712999 0.11353 0.068807997
-0.0093818 0.12661 0.12695999
0.024579 0.083949 0.13478
0.0054990998 0.074051999 0.10481
-0.01168 0.050607 0.10485
0.02104 0.070885003 0.099420004
0.021801 0.071958996 0.099588998
0.066216998 0.13041 0.073303998
-0.0058919 0.096394002 0.131
-0.014436 0.11987 0.12051
-0.013972 0.11809 0.11961
0.0057568001 0.021458 0.1198
0.0044461 0.1455 0.1132
0.0038288999 0.14456999 0.11522
0.0044613001 0.14473 0.11413
0.050933 0.11535 0.087963998
0.0093997 0.11223 0.091479003
0.050847001 0.12993 0.091412
0.016323 0.080109999 0.13582
0.015306 0.079708003 0.13582
0.057496998 0.060226999 0.10202
0.016013 0.14685 0.083021
0.01485 0.14658 0.084009998
0.037937999 0.053397998 0.11384
0.051203001 0.027773 0.12035
0.047908999 0.0085001998 0.095833004
0.039276998 0.12126 0.097608
-0.032827001 0.10657 0.091863997
-0.031061999 0.10701 0.093271002
-0.0012187 0.11816 0.096061997
-0.0017252 0.11836 0.096213996
-0.0057271002 0.13139001 0.11621
-0.0057088998 0.1288 0.088503003
0.028779 0.13586 0.10441
0.014745 0.12019 0.071382001
0.027365999 0.054547001 0.13042
0.027674999 0.052618001 0.13105001
0.030332999 0.091652997 0.13369
0.050039999 0.0048922002 0.12091
0.049132999 0.0054342998 0.12002
-0.02083 0.003394 0.10189
-0.0086696995 0.048969999 0.10357
0.037935 0.055047002 0.1154
0.039246 0.053427 0.11579
0.059062 0.14380001 0.081906997
0.059218001 0.14286999 0.083035998
0.044498999 0.1156 0.091234997
-0.0024257 0.011852 0.10945
-0.034497999 0.11563 0.1103
-0.031753 0.11459 0.11174
0.026753999 0.099027999 0.13971999
-0.0063052 0.12694 0.090158999
-0.0065814001 0.12521 0.090598002
0.052552 0.051298998 0.11182
0.053748999 0.051355999 0.11175
0.051263001 0.050508 0.11296
0.025947999 0.051716998 0.13404
0.025245 0.052030001 0.13247
0.055691 0.14650001 0.067383997
0.045462999 0.0078325002 0.11678
0.044778999 0.0073448 0.11532
0.011091 0.12146 0.14574
0.040312 0.11767 0.1318
0.024712 0.053713001 0.13338999
0.02417 0.053922001 0.13237
0.043065999 0.076958999 0.10549
-0.0019878999 0.059200998 0.10454
0.053130001 0.068680003 0.11565
-0.055706002 0.11386 0.079361998
0.014099 0.094701998 0.13981999
0.012853 0.093226001 0.13992
-0.011878 0.032325 0.12199
-0.011947 0.033091001 0.12205
0.023141 0.055852 0.13711999
0.014358 0.14792 0.081122003
0.048262998 0.076816 0.10824
0.048165999 0.076213002 0.10836
-0.016863 0.046007 0.1105
-0.013801 0.11768 0.10338
-0.013697 0.11694 0.10128
-0.011684 0.11708 0.10323
-0.030131999 0.10176 0.11324
0.027265999 0.061368998 0.11688
0.024261 0.060304999 0.11494
-0.0023014001 0.015978999 0.10863
-0.00087756 0.017016999 0.10692
-0.00033129001 0.016396999 0.10778
-0.0027542 0.089194998 0.1147
0.0063526998 0.056584001 0.10571
-0.021522 0.11801 0.11358
0.047497999 0.0070222998 0.10669
-0.019783 0.14962 0.088146001
0.047332998 0.055791002 0.091982998
0.0029233999 0.041717999 0.1186
0.0054918001 0.017273 0.1216
0.0056046001 0.018963 0.12213
0.014398 0.13883001 0.13609999
0.015516 0.13948999 0.13629
-0.0010892 0.084871002 0.11511
0.036841001 0.089521997 0.11351
0.038263999 0.089438997 0.11247
0.037622999 0.09008 0.11171
0.015745999 0.14148 0.084151
0.051649 0.012564 0.086779997
-0.057824001 0.11346 0.075489998
0.031132 0.059537999 0.13341001
0.026872 0.11796 0.094603002
0.02692 0.1178 0.093804002
-0.012901 0.024871999 0.12164
-0.010945 0.025297999 0.12322
-0.0034562 0.042325001 0.12302
-0.051167998 0.1211 0.066740997
-0.0028053999 0.073895 0.12463
0.038633 0.051825002 0.098812997
-0.010508 0.018019 0.11887
-0.010417 0.017609 0.11717
-0.0053909002 0.021326 0.12533
0.049338002 0.12611 0.10598
0.0013443 0.14027999 0.085355997
0.022546999 0.14109001 0.13241
0.021007 0.093542002 0.097502001
0.046434 0.12119 0.11424
0.045120999 0.12199 0.1139
0.045024 0.12034 0.11516
-0.010833 0.0017777 0.098343998
-0.0095063997 0.0021738 0.096589997
0.040006999 0.08213 0.11661
0.01825 0.11005 0.14686
0.01722 0.10933 0.14672001
0.05077 0.071932003 0.11391
0.051479999 0.072618999 0.11439
-0.015805 0.048572 0.11344
-0.016163001 0.048702002 0.11549
-0.052145001 0.12526999 0.088155001
0.040794 0.12172 0.12912001
-0.0081954002 0.12843999 0.11781
-0.0090169003 0.12917 0.11706
-0.0040831999 0.093965001 0.12913001
0.046718001 0.059349999 0.092431001
0.038210999 0.11024 0.13226999
0.038531002 0.10906 0.13325
-0.0022131 0.096089996 0.096399002
-0.017650999 0.1076 0.12458
-0.022624999 0.098522998 0.11486
-0.041886002 0.11276 0.085709997
0.063927002 0.13129 0.073749997
-0.0037106001 0.012801 0.10914
-0.0048210002 0.011528 0.11
-0.027951 0.1164 0.11233
-0.012765 0.0050006001 0.099638
0.060143001 0.021923 0.11432
0.058458 0.022150001 0.1151
0.021506 0.071258001 0.13223
0.028049 0.065545 0.13056
0.053468999 0.13196 0.093589
0.015306 0.15034001 0.086658001
0.016324 0.15109 0.087958001
0.051380999 0.11519 0.083825
0.021225 0.13745999 0.097538002
0.052248001 0.063203998 0.11625
0.011407 0.050503001 0.1199
0.0098919999 0.076361001 0.13262001
0.0081157004 0.076724999 0.13158
0.02076 0.12664001 0.1454
0.030145001 0.10501 0.092951998
0.017517 0.1441 0.12653001
0.016403999 0.14245 0.127
0.038247 0.073740996 0.10005
0.036802001 0.074161001 0.10064
0.036556002 0.073934004 0.099834003
-0.049736001 0.12938 0.071681999
0.058667999 0.13916001 0.089172997
-0.0067754001 0.13718 0.093024999
-0.010426 0.12751999 0.11531
-0.010809 0.12792 0.11605
-0.023902001 0.11882 0.10781
-0.023062 0.11786 0.10826
0.0012757001 0.065159999 0.13025001
0.00085292 0.065695003 0.1304
-0.036614999 0.12503999 0.091730997
-0.055923 0.1217 0.080862001
-0.056805 0.12008 0.080631003
0.041625001 0.044635002 0.1033
0.025068 0.13076 0.094885997
0.025428999 0.13042 0.094398998
-0.0045453999 0.097138003 0.10137
-0.01553 -8.0856e-05 0.09482
-0.0164 0.00049019 0.096156001
0.027079999 0.060166001 0.10872
0.026642 0.060887001 0.1098
0.027872 0.06092 0.10821
0.015261 0.14195 0.081090003
-0.0023572999 0.0074556 0.1069
0.014912 0.14467999 0.12928
0.012875 0.1436 0.12822001
0.056632999 0.12943 0.096015997
0.056173999 0.12906 0.096211001
0.020834001 0.1046 0.14509
0.025181999 0.10997 0.090879001
0.033780001 0.056014001 0.11374
0.034566 0.056097001 0.11399
0.059964001 0.14053001 0.061223
0.059186999 0.13942 0.063238002
0.061087999 0.14484 0.062826999
-0.021531999 -0.00089005998 0.098810002
-0.021604 -0.0022189 0.098459996
0.021451 0.14139999 0.087788999
0.019652 0.14307 0.087407
-0.021255 -0.00056945998 0.10188
-0.010551 0.15289 0.091146998
-0.049049001 0.13427 0.082569003
-0.015063 0.099073999 0.11582
-0.014019 0.098417997 0.11615
0.060688999 0.14986999 0.075972997
0.053909998 0.12281 0.078800999
0.054223001 0.12413 0.077986002
0.054143999 0.12199 0.077064998
-0.0023542 0.075787999 0.11432
-0.0018965 0.074497998 0.11516
-0.0030861001 0.073550001 0.1153
0.048227999 0.02593 0.11977
0.033443999 0.079053 0.12962
-0.012899 0.11891 0.10447
0.049508002 0.021121001 0.12093
0.050496999 0.019835999 0.12041
0.050604999 0.021158 0.12147
0.013677 0.12393 0.14504001
0.014926 0.1247 0.145
-0.013998 0.14669999 0.090597004
-0.014514 0.14762001 0.091784999
0.024812 0.098889999 0.090940997
0.0058937999 0.12976 0.076096997
0.0063904999 0.13077 0.076444
0.0049243001 0.12941 0.075726002
0.048036002 0.034090001 0.098973997
0.011896 0.14537001 0.12031
0.011679 0.14458001 0.12216
0.054341 0.13950001 0.078777999
-0.056577001 0.11728 0.079544
0.016751001 0.1487 0.080403
0.050356001 0.13191999 0.091973998
-0.0078138998 0.11779 0.13753
0.058921002 0.14139 0.084877998
0.057983998 0.14221001 0.085816003
0.017649001 0.10231 0.14467999
0.016504999 0.10301 0.14509
-0.012649 0.034727 0.10525
0.058596998 0.12157 0.07615
0.023676001 0.13369 0.14032
0.0221 0.13417999 0.14103
0.039248001 0.080401003 0.1144
0.040458001 0.082705997 0.11412
-0.02428 0.1176 0.109
0.053148001 0.13679001 0.089101002
0.049153998 0.0055136001 0.10369
-0.018843001 0.11247 0.1222
-0.020245999 0.11167 0.12265
-0.01486 0.11558 0.12233
-0.016410001 0.11379 0.12357
0.056375999 0.014309 0.089933999
0.057686999 0.014872 0.090581998
0.030472999 0.066726997 0.12751
0.0027604999 0.078381002 0.12635
0.052386999 0.12541001 0.099976003
-0.027349001 0.10666 0.096937999
-0.010054 0.14191 0.093878001
-0.010104 0.14305 0.092197999
0.043336999 0.024986999 0.10681
0.0033058999 0.043345999 0.11146
0.054109 0.0099795004 0.12121
0.052196 0.0085955998 0.12115
0.053254001 0.0087949997 0.11969
-0.013725 0.15005 0.092242002
0.044479001 0.042211 0.11486
0.051771998 0.037048001 0.096712999
0.013834 0.085881002 0.096980996
0.055542 0.066904999 0.10398
0.055689 0.067116 0.10526
-0.0015092 0.093131997 0.12851
-0.034568999 0.12215 0.088895999
-0.035365 0.12309 0.091017999
-0.017155999 0.042204 0.11125
0.0069725998 0.13116001 0.14088
0.033836 0.13574 0.121
0.035218 0.13482 0.12155
0.053454999 0.020053999 0.10485
0.051227 0.1311 0.084054999
0.051077999 0.13174 0.084758997
-0.012205 0.14895 0.084089004
-0.0024023999 0.13804001 0.097746998
-0.0016202 0.13968 0.098384999
-0.032198001 0.11754 0.094419003
-0.029968999 0.11617 0.094086997
0.060238998 0.15129 0.074026003
0.060373999 0.15044001 0.074091002
-0.0062393998 0.12292 0.096644998
-0.0097914999 0.12709001 0.12164
-0.01076 0.12581 0.12006
0.018699 0.1441 0.091349997
0.018833 0.14480001 0.091476999
0.046535 0.062155999 0.12014
0.0041311998 0.11916 0.14431
-0.050237 0.12067 0.073792003
0.010783 0.11231 0.081506997
0.0095985001 0.11236 0.083251998
0.049254999 0.057117 0.11699
0.014447 0.11673 0.078773998
-0.0075548999 0.055314999 0.10254
0.034132998 0.091178998 0.13139001
0.034999002 0.091452003 0.12952
0.061616 0.14074001 0.083208002
0.062576003 0.14116 0.083572999
0.059475999 0.12144 0.096997
0.059487 0.12074 0.098169997
-0.015121 0.11214 0.10437
0.016161 0.10656 0.093200997
0.014785 0.10722 0.093108997
-0.050804999 0.13006 0.070992999
-0.050255999 0.13038 0.071401
0.020351 0.14356001 0.12962
0.020298 0.14191 0.12992001
0.021679999 0.14216 0.13083
-0.027171001 0.10045 0.10183
-0.027575999 0.10149 0.10177
0.015269 0.081919 0.097562999
0.015815999 0.082010001 0.098196998
-0.011047 0.12551001 0.12842999
-0.016595 0.10252 0.10476
0.029163999 0.082163997 0.10132
0.043419998 0.039352998 0.099633999
0.043120001 0.038275 0.098612003
0.044831999 0.037806999 0.099212997
0.034442 0.10705 0.13872001
-0.0053602001 0.13178 0.089544997
-0.0046691 0.13337 0.09003
0.016473999 0.060532998 0.12319
-0.0033231999 0.11686 0.097277999
0.037000999 0.10046 0.13204999
0.037919 0.10023 0.13179
0.039122999 0.10124 0.13057999
0.0060075 0.12329 0.14352
0.023216 0.15460999 0.085190997
0.0010713 0.023886999 0.10558
0.0015143 0.026515 0.10602
0.00097688998 0.034371 0.10624
0.037622001 0.084693 0.11129
0.038727999 0.082461998 0.11057
-0.0092738997 0.019812001 0.10952
0.018554 0.11634 0.14622
0.016055999 0.11423 0.14638001
-0.0044737998 0.13203999 0.12785999
-0.0072830999 0.12740999 0.097600996
0.055959001 0.12589 0.10115
-0.051989 0.12027 0.071097001
-0.051819999 0.11927 0.070528001
-0.010255 0.0059365002 0.10174
-0.0095908996 0.0053357999 0.10096
-0.0081470003 0.0058562001 0.10084
0.011019 0.11983 0.064182997
0.0075607998 0.1364 0.082112998
-0.011248 0.01788 0.11755
0.0080014998 0.12975 0.075952999
0.051304001 0.05858 0.11772
0.052671 0.10915 0.10694
0.052044999 0.10846 0.1085
0.053750999 0.023643 0.10341
-0.0029835999 0.066715002 0.11031
-0.0052256002 0.066272996 0.11002
0.045088001 0.043035999 0.097227
0.0015854 0.094512999 0.13686
-0.00029133001 0.095158003 0.13677999
0.00031745 0.094265997 0.13542999
0.067506 0.13801999 0.087825999
-0.0047693001 0.017735001 0.10788
0.0061420999 0.13812999 0.13439
-0.037932001 0.10579 0.088321999
0.035649002 0.11762 0.13797
0.022721 0.13969 0.13314
0.047504 0.036717001 0.097691
-0.040863998 0.10763 0.10667
0.021005999 0.14298999 0.10403
0.042210001 0.10419 0.11372
-0.013126 0.15028 0.083809003
0.00055037998 0.11743 0.081909001
0.032586999 0.098375998 0.13638
0.033117 0.098312996 0.1358
0.033016998 0.098397002 0.13643
0.050615001 0.034796 0.095306002
0.0059408001 0.011952 0.12063
-0.00071063999 0.12041 0.084287003
0.0099924002 0.00028606999 0.12254
0.032581002 0.056570001 0.11268
0.033319999 0.057009 0.11214
0.041393001 0.11773 0.12782
-0.011382 0.11725 0.13055
0.050849002 0.027069001 0.099532999
0.051624998 0.027133999 0.099774003
0.066223003 0.010708 0.094457999
0.0089383004 0.088471003 0.13620999
0.01425 0.14031 0.08292
-0.0032446999 0.12238 0.096781
0.044817001 0.067534 0.12138
-0.00094827003 0.12186 0.091364004
0.056473002 0.14926 0.064622
-0.0043520001 0.093700998 0.12887999
-0.0028186 0.093427002 0.12989999
-0.0026805 0.10346 0.094306998
-0.047972001 0.10868 0.086721003
-0.04809 0.10934 0.085968003
0.022662999 0.062497001 0.11543
0.0090492005 0.14248 0.090939999
0.024297001 0.14125 0.12503999
0.022871001 0.059661999 0.13304999
0.013011 0.064653002 0.10525
0.014757 0.063804999 0.1049
0.064691 0.12897 0.095399998
0.065148003 0.13111 0.094857
0.063859001 0.12988 0.097025
0.0017842 0.089229003 0.099192001
0.0022547001 0.090662003 0.10078
0.054347001 0.053218 0.096183002
0.054754999 0.051932 0.094407
0.030681999 0.069187 0.10015
0.032256 0.075704999 0.099937998
0.033008002 0.076095998 0.098890997
0.0028750999 0.12222 0.14182
-0.01936 0.11412 0.12203
-0.0046172999 0.046929002 0.10415
0.0028923999 0.14286999 0.12142
0.011712 0.10623 0.095247999
-0.0020572001 0.068714 0.12758
0.0024888001 -0.00037326 0.11161
0.0058305999 0.027462 0.10723
0.0053015002 0.027601 0.1079
0.041060999 0.053511001 0.11849
0.041584 0.054646999 0.11728
0.050094001 0.011977 0.090469003
0.049736001 0.01163 0.091697
-0.0025928 0.096514001 0.095904998
0.022198001 0.13829 0.13536
0.062652998 0.0099745998 0.086773001
-0.047816001 0.10705 0.10048
0.056260001 0.11253 0.088435002
0.025954001 0.10583 0.1444
0.031573001 0.047511 0.15259001
-0.020246999 0.10836 0.12352
-0.020571001 0.11053 0.12333
-0.021950001 0.10803 0.12371
0.0094827004 0.14544 0.11187
-0.04806 0.12922999 0.086092003
0.041460998 0.12777001 0.10754
0.011116 0.08642 0.096717998
0.011924 0.087481 0.095908001
0.031254001 0.054572999 0.13233
0.028995 0.054944001 0.13196
-0.042716 0.11293 0.10986
-0.0085006002 0.12890001 0.10812
-0.045556001 0.1192 0.081626996
-0.045552999 0.11827 0.080507003
0.017341999 0.081896 0.098012999
0.016031001 0.081308998 0.098033004
-0.052997999 0.11446 0.098866999
0.047842 0.01473 0.095992997
0.026907001 0.075136997 0.10031
0.02647 0.075021997 0.099636003
0.0012303001 0.068283997 0.10586
0.0024882001 0.068568997 0.1063
0.024278 0.059496999 0.1261
0.023536 0.058157001 0.12745
0.0078627001 0.050305001 0.11137
0.0082310997 0.050933 0.11186
0.016215 0.1339 0.081929997
0.050037999 0.15621001 0.062734999
0.022172 0.060217001 0.12914
0.0019932999 0.11604 0.14586
0.0048823999 0.11686 0.14382
-0.052717 0.1174 0.092697002
0.011227 0.10495 0.094393
0.010085 0.10398 0.094956003
0.042780001 0.11876 0.12689
-0.0019487001 0.027387001 0.1058
0.031608999 0.045972999 0.14983
0.054315001 0.13241 0.092671998
0.038984001 0.098061003 0.11552
0.03937 0.097356997 0.11684
-0.0078849997 0.13984001 0.091948003
-0.0070103998 0.13823 0.090813003
-0.0069400999 0.13788 0.090961002
0.052072 0.125 0.10386
0.045541 0.029661 0.10048
0.064113997 0.12530001 0.095798001
-0.055617001 0.11467 0.083253004
0.0019091 0.083094999 0.12214
0.00099332002 0.082754001 0.12459
0.035544001 0.10488 0.098043002
0.042211998 0.040927999 0.11066
0.001248 0.013769 0.11046
0.0028231 0.013184 0.10924
-0.0078546004 0.043327 0.10547
0.037409 0.076549001 0.12391
0.0447 0.11126 0.11765
0.044160001 0.11018 0.11765
0.0071001998 -0.00079776999 0.1181
0.033344999 0.12021 0.13832
0.034568001 0.11958 0.139
0.011382 0.077454999 0.13468
0.011361 0.076545 0.1337
0.064511001 0.011114 0.10419
-0.021948 0.10559 0.12378
0.053259 0.15457 0.064424999
0.053031001 0.15651999 0.065926999
0.052926999 0.1551 0.064390004
0.055307001 0.066722997 0.10876
0.036936998 0.083970003 0.12558
0.038302999 0.084661998 0.12531
0.037586 0.066146001 0.12457
0.026942 0.061427001 0.10783
0.026148001 0.061259001 0.10824
0.019032 0.10416 0.14466
0.041196998 0.054324999 0.11814
0.010026 0.11461 0.14601
0.046898998 0.074109003 0.11473
0.046909999 0.074634999 0.11533
-0.0069128 0.094832003 0.11405
-0.0077598998 0.095201999 0.11437
-0.0081238002 0.065466002 0.11608
0.046537999 0.011626 0.10431
0.0027977 0.082909003 0.11372
0.0019572 0.081187002 0.11301
0.016161 0.058157999 0.12211
0.035114001 0.12447 0.099319004
-0.04696 0.12530001 0.091081999
-0.045552 0.12533 0.092303
-0.045265999 0.12523 0.092332996
0.029895 0.063896999 0.12668
0.030270999 0.063017003 0.12720001
0.047327001 0.023952 0.11954
0.046666998 0.025635 0.11967
0.045857001 0.024389001 0.11921
-0.012161 0.047138002 0.12093
0.0015457 0.11178 0.096698001
0.0012895 0.1105 0.097181998
0.038366999 0.031803999 0.1076
0.070124 0.13564999 0.087077998
0.042148001 0.052363999 0.1148
0.046025001 0.11848 0.11651
0.015437 0.11581 0.093154997
0.054118 0.15146001 0.058176
0.053631999 0.1496 0.058809001
0.049810998 0.073100999 0.10455
-0.00063252001 0.12202 0.067980997
-0.0012701 0.12201 0.070334002
0.016054001 0.064039998 0.1303
0.063038997 0.12133 0.078945003
0.064241998 0.11986 0.079970002
0.048411999 0.0057374001 0.11631
0.048593 0.0063907998 0.11581
0.048177 0.0059254002 0.11546
0.019710001 0.08642 0.13799
0.020798 0.086494997 0.13696
0.047159001 0.0072340001 0.10852
0.045809001 0.0059058 0.11128
-0.018879 0.11325 0.12271
-0.018848 0.1133 0.12271
-0.0072364002 0.10691 0.13346
0.0025994999 0.12395 0.068154
0.0028196999 0.12329 0.068984002
0.037477002 0.059819002 0.096428998
0.038293999 0.062812999 0.096156001
-0.017895 0.044977002 0.10507
0.050689999 0.0524 0.091779999
0.051463999 0.054924 0.092013001
0.051339 0.054641001 0.092850998
-0.0053909002 0.13541999 0.1085
-0.0048411 0.13555001 0.10979
0.043315001 0.035487 0.11582
0.045147002 0.037055001 0.11718
-0.029170001 0.11275 0.11596
-0.027897 0.11404 0.11702
0.016446 0.13524 0.14071
-0.0021758 0.13043 0.078722998
-0.0023222 0.13072 0.079350002
-0.054492 0.12887999 0.081086002
-0.016266 0.047509 0.11541
0.061540999 0.017215 0.10195
0.063026004 0.016476 0.10059
0.060911998 0.017765 0.10144
-0.032342002 0.11388 0.11341
0.00064142997 0.080178998 0.12069
0.037863001 0.082699001 0.10793
0.0070146001 0.027128 0.11682
0.0012717 0.13243 0.081107996
0.00076329999 0.13401 0.081462003
0.0016707 0.13271999 0.080564
0.056003999 0.14658999 0.079945996
0.056984 0.14889 0.079956003
0.066471003 0.1419 0.072254002
-0.046618 0.11132 0.084085003
-0.046064999 0.11129 0.084213004
-0.015730999 0.15162 0.084999003
0.0026068999 0.1427 0.094421998
0.0020041999 0.1424 0.094847001
0.028031999 0.14011 0.1284
0.028317001 0.13855 0.1294
-0.0057784002 0.12266 0.094539002
-0.0060501001 0.12279 0.092301004
0.058005001 0.15215001 0.071475998
0.026277 0.065282002 0.103
0.034453001 0.12748 0.13593
0.034189999 0.12738 0.13733
0.0074246 0.12327 0.063794002
0.0066221999 0.12241 0.063450001
0.0069521 0.12182 0.063312002
0.037250001 0.13180999 0.12928
0.036995001 0.13054 0.12695
0.036578 0.13292 0.12748
-0.015628999 0.0046546999 0.11103
-0.014626 0.0061299 0.11179
-0.014776 0.0057461001 0.11014
0.03207 0.046723999 0.15067001
0.029163999 0.06549 0.10116
-0.0036446999 0.057160001 0.13074
0.020145001 0.12283 0.093539
0.053803001 0.15459999 0.072786003
0.019324001 0.10376 0.14556
0.018439 0.10651 0.14477
-0.023468999 0.10211 0.10264
0.069728002 0.13324 0.080399998
-0.0042907 0.054903999 0.10256
0.045022 0.039584 0.098825
0.042442001 0.097537003 0.1213
0.034143001 0.055167999 0.10427
-0.0068794 0.0058774999 0.12151
-0.0043874001 0.10893 0.13895001
-0.0055441 0.045924 0.12462
0.0013864 0.087324001 0.12453
-0.00034373999 0.091675997 0.10104
0.049481001 0.052237 0.092263997
0.0084734 0.10686 0.094038002
-0.033709001 0.11813 0.10694
-0.013667 1.6013e-05 0.10357
-0.014235 0.0014545 0.10347
0.0067568002 0.098647997 0.14342
-0.027179001 0.11208 0.097770996
0.031922001 0.059200998 0.10361
0.031691998 0.13349999 0.10671
0.033160999 0.13266 0.10795
0.032958999 0.13291 0.10682
-0.042688999 0.10414 0.091588996
0.052452002 0.035796002 0.1191
0.052538 0.035974 0.11963
0.0030855001 0.013026 0.12365
0.042863999 0.052625 0.095150001
0.042725999 0.053041 0.095252
0.0069904001 0.0065747001 0.12502
0.0074741002 0.0047570998 0.12419
0.049435999 0.12532 0.095863
0.0037118001 0.034774002 0.10929
0.04668 0.12710001 0.10472
0.047332 0.12594999 0.10446
0.045256998 0.12548 0.10571
0.02671 0.10429 0.1429
0.025977001 0.1045 0.14252999
0.035693999 0.085602 0.10755
0.024122 0.093716003 0.13713001
-0.020540999 -0.0021631999 0.1117
0.031792 0.095238 0.097525001
-0.024801999 0.11136 0.12099
-0.025169 0.11279 0.11995
0.021063 0.087503001 0.13762
0.053892002 0.069816999 0.10264
0.042885002 0.11766 0.12451
0.043804001 0.11637 0.12518001
-0.0017500001 0.092527002 0.12665001
0.031799 0.069688 0.099449001
0.052661002 0.043117002 0.11598
0.069476001 0.13579001 0.085125998
-0.0054704999 0.12936001 0.089882001
-0.0061825998 0.13088 0.090861
-0.0060439999 0.12811001 0.099728003
-0.0067234999 0.12878001 0.10198
0.045804001 0.029699 0.10127
0.045162998 0.064144 0.093754001
0.058564998 0.017805999 0.099344
0.070246004 0.12986 0.090207003
-0.0044133002 0.094354004 0.13138001
0.066716999 0.12102 0.085008003
-0.0053951 0.094141997 0.10897
-0.0060651 0.092073001 0.1094
-0.0060995999 0.094470002 0.10842
0.069954 0.13109 0.091086
0.010671 0.081908002 0.13405
0.00017923 0.091206998 0.098612003
5.4935001e-05 0.092724003 0.097824998
-0.0040151998 0.022586999 0.12673999
0.00016647 0.038619999 0.11867
0.051238999 0.070955999 0.10314
0.035971999 0.10577 0.13721
0.036217 0.10654 0.13719
0.0010677 0.12258 0.062252
0.002571 0.12315 0.060295001
0.045557 0.074570999 0.10214
0.047385 0.074024998 0.10265
0.045876 0.074129 0.1014
0.027210001 0.062715001 0.10451
-0.036926001 0.11326 0.10979
0.065631002 0.14225 0.073283002
0.017336 0.14867 0.080859996
-0.0056170002 0.069323003 0.11921
0.057445001 0.14902 0.080196999
-0.0073829 0.11879 0.13696
-0.0067229001 0.11858 0.13700999
-0.0067838999 0.11918 0.13789999
0.023379 0.1362 0.1012
0.026462 0.10242 0.090075001
0.025536001 0.10091 0.090565003
-0.00023825 -0.0013001 0.12119
-2.858e-05 -0.0012584 0.11978
0.00064139999 1.0637e-05 0.12089
-0.0031612001 0.023716999 0.10448
-0.049185 0.10759 0.10124
-0.049400002 0.10663 0.10196
0.018878 0.12643 0.082160003
-0.023342 0.10836 0.10026
-0.016542001 0.11586 0.12029
0.0083833998 0.081570998 0.1331
0.0070603001 0.081908002 0.13292
0.0060589002 0.083246 0.13242
0.055080999 0.017736999 0.097511999
0.053546 0.016690001 0.097520001
0.056285001 0.061009001 0.10174
0.057381999 0.063043997 0.099753
0.056499999 0.13818 0.090515003
0.056224 0.1384 0.090804003
0.053692002 0.155 0.065513998
-0.025117001 0.11321 0.10194
-0.024194 0.11372 0.10123
-0.024765 0.11375 0.10065
0.026279001 0.12949 0.094273999
0.0030209001 0.071511999 0.12943
0.0012331 0.070386998 0.12868001
0.062445998 0.11732 0.080614999
0.023723001 0.13324 0.096217997
0.032426 0.082084998 0.10357
-0.049300998 0.1345 0.081445001
0.00039152999 0.12022 0.065057002
0.0065619 0.03249 0.11629
0.0054865 0.030531 0.11692
0.064879999 0.0098371999 0.10185
