# .PCD v0.7 - Point Cloud Data file format
VERSION 0.7
FIELDS x y z
SIZE 4 4 4
TYPE F F F
COUNT 1 1 1
WIDTH 1425
HEIGHT 1
VIEWPOINT 0 0 0 1 0 0 0
POINTS 1425
DATA ascii
0.048796002 0.080334 0.077468
0.042126 0.081849001 0.072273999
0.043359999 0.082746997 0.071670003
0.052166998 0.080679998 0.077321999
0.052694 0.080668002 0.078752004
0.054083001 0.082551003 0.078405
0.054005001 0.081574999 0.077694997
0.053913001 0.082043998 0.078176998
0.054182999 0.082587004 0.078259997
0.043387 0.082845002 0.070513003
0.043055002 0.084129997 0.070698
0.045614999 0.083973996 0.073053002
0.046613 0.084885001 0.073014997
0.051258001 0.084376998 0.076752
0.049293999 0.084547997 0.074699
0.050613999 0.083641998 0.075948998
0.041696001 0.057039 0.082511
0.031899001 0.058534998 0.076024003
0.031771999 0.058329001 0.074435003
0.032584 0.059916999 0.074597999
0.04716 0.059578001 0.082728997
0.035016 0.062732004 0.074947998
0.036146 0.062976003 0.076615997
0.041085999 0.062775001 0.077720001
0.046089001 0.062843002 0.081442997
0.046562999 0.062371001 0.082647003
0.047614999 0.061971001 0.082424998
0.040562999 0.064264998 0.077578001
0.042288002 0.064057 0.077965997
0.035638999 0.066362999 0.0748
0.036625002 0.064946003 0.074533001
0.03255 0.067736998 0.072278999
0.057847999 0.066136003 0.086818002
0.059248 0.067380004 0.087669998
0.059726 0.069197997 0.087594002
0.061271999 0.070805997 0.087384
0.029654 0.071948998 0.068899997
0.030610001 0.072825 0.067947
0.030305 0.073614001 0.068354003
0.061014 0.072090998 0.087068997
0.031553999 0.074115999 0.068364002
0.060206 0.073556997 0.086682998
0.033594001 0.076323003 0.068674996
0.033243001 0.076357998 0.068116002
0.060318999 0.074265003 0.084907003
0.056593001 0.075953998 0.083016001
0.039375 0.078194998 0.071727999
0.046337001 0.079513997 0.076057002
0.046695001 0.078390002 0.076282002
0.047853 0.078117996 0.076433003
0.054149002 0.081237003 0.080191001
0.041333001 0.081988998 0.071025997
0.04245 0.082400002 0.07096
0.041336998 0.081786998 0.070832998
0.040994 0.083851002 0.071245998
0.055108 0.083820999 0.079129003
0.055585999 0.082918003 0.078936003
0.042955998 0.084261 0.070781
0.045047998 0.084368996 0.073014997
0.052972 0.084495001 0.077413
0.047947999 0.084413998 0.073661998
0.039995 0.056584001 0.081203997
0.042312 0.057349 0.08264
0.030107001 0.060965002 0.074767001
0.034054 0.061570998 0.074758999
0.033739001 0.062488001 0.075194001
0.039163001 0.062946998 0.077817999
0.043023001 0.063244 0.080259003
0.044362999 0.062936001 0.080615997
0.057054002 0.065351002 0.087436996
0.029809 0.067608997 0.072531
0.030234 0.069548003 0.070248999
0.030292001 0.070555001 0.069030002
0.05734 0.075352997 0.083094001
0.054189999 0.075934999 0.080468997
0.052366 0.078018002 0.078698002
0.045051001 0.078704998 0.075282998
0.056169 0.081448004 0.080481999
0.054611001 0.080361001 0.080243997
0.040302999 0.083485 0.069675997
0.056727 0.083461002 0.079636
0.054501001 0.082872003 0.077818997
0.043837 0.058005001 0.083057001
0.030818 0.059666 0.074754998
0.030717 0.061838999 0.074376002
0.039379001 0.063527003 0.077940002
0.040596999 0.063478999 0.078369997
0.047042001 0.063564003 0.082345001
0.045203999 0.063877001 0.081215002
0.040114 0.064032003 0.079076
0.047033001 0.062302999 0.082562998
0.052593 0.064659998 0.086172
0.055813 0.064401001 0.08726
0.059944998 0.067707002 0.087852001
0.029580999 0.070239 0.070123002
0.060805999 0.069649003 0.088063002
0.028836999 0.072851002 0.068148002
0.062279999 0.070878997 0.088004
0.030029999 0.075630002 0.068249002
0.061388999 0.073155999 0.086787999
0.032056 0.076458998 0.067884997
0.061204001 0.074979998 0.086453997
0.057980001 0.075912997 0.084063999
0.05407 0.077483997 0.081256002
0.052361999 0.078282997 0.079193003
0.042204998 0.078778997 0.073542997
0.041765999 0.078856997 0.073293999
0.043809 0.079223 0.074262999
0.050919 0.077109002 0.078840002
0.045471001 0.079181999 0.074881002
0.043784 0.079516001 0.074499004
0.048659999 0.079838999 0.077335998
0.048507001 0.079869002 0.076412998
0.040119998 0.082122996 0.070788004
0.057720002 0.082019001 0.081597999
0.057365 0.080603004 0.081266999
0.039111 0.082927004 0.068945996
0.041237999 0.084725998 0.069775999
0.031028001 0.058093999 0.075268
0.047913998 0.060123 0.084074996
0.048852999 0.062918998 0.083310999
0.034759998 0.065848 0.075222999
0.033707999 0.066799998 0.074033998
0.028837999 0.06978 0.070479997
0.028902 0.071941003 0.068402998
0.062290002 0.070981003 0.088186003
0.029056 0.074711002 0.067525998
0.059163999 0.075887002 0.084670998
0.035503998 0.078295998 0.069926001
0.038903002 0.078267999 0.072667003
0.040107999 0.079426996 0.072499
0.050893001 0.079333 0.078198001
0.051695 0.080265 0.079553999
0.039129999 0.083848998 0.069053002
0.058001999 0.083440997 0.080913998
0.028883999 0.061099 0.073934004
0.029314 0.060070999 0.073616996
0.037638001 0.064175002 0.077114999
0.050021 0.063133001 0.085412003
0.051789001 0.062748 0.087015003
0.051158 0.062654004 0.087442003
0.051068999 0.062256001 0.086291
0.033914 0.066253997 0.075200997
0.032485999 0.066298999 0.075391002
0.032118998 0.066390999 0.073353
0.058192 0.065805003 0.088941
0.030224999 0.067814 0.071456999
0.059177998 0.066630997 0.088303998
0.061694998 0.068763003 0.088817
0.061241999 0.068269998 0.089450002
0.028329 0.074688002 0.068324
0.062259998 0.073623002 0.087825999
0.030699 0.075836003 0.068999998
0.059997 0.073504999 0.086965002
0.032802999 0.078117996 0.069362
0.036471002 0.079060003 0.070744
0.036492001 0.079576999 0.070702001
0.055835001 0.077770002 0.082484998
0.043538999 0.079641998 0.073518001
0.052313998 0.079407997 0.079120003
0.041198999 0.080889001 0.072779998
0.040807001 0.080916002 0.072604001
0.055158999 0.080101997 0.081377
0.057317998 0.080412999 0.082350001
0.058444999 0.082920998 0.081752002
0.057388 0.082229003 0.082139
0.046668999 0.084650002 0.074697003
0.040498 0.058472 0.083120003
0.029077001 0.061687998 0.073622003
0.032444 0.063212998 0.075496003
0.033645999 0.063657999 0.074757002
0.033441 0.064131998 0.075598001
0.036683999 0.064225003 0.077215001
0.035399999 0.064377002 0.077027999
0.049632002 0.063789003 0.085697003
0.051054999 0.063477002 0.085988
0.034704 0.065315999 0.075414002
0.052754998 0.064300001 0.087316997
0.056761999 0.065009996 0.089192003
0.058754999 0.065191001 0.090190999
0.027566999 0.070473999 0.069876
0.028679 0.068889 0.070811003
0.028067 0.071438 0.068186998
0.027988 0.073169999 0.068216003
0.026908999 0.073882997 0.067818001
0.063964002 0.071827002 0.090198003
0.030799 0.077036001 0.069045
0.056644 0.077715002 0.084362
0.040502999 0.079286002 0.072411999
0.05779 0.080554001 0.082157999
0.057489999 0.080893002 0.082318999
0.038624998 0.081843004 0.070460998
0.038022999 0.082877003 0.070044003
0.037705 0.084707998 0.069539003
0.038989998 0.086006001 0.069963999
0.057156999 0.083926998 0.081426002
0.047086999 0.085377999 0.075199999
0.053052001 0.084124997 0.078970999
0.035939001 0.057649001 0.079519004
0.036660001 0.057682998 0.081147
0.031039 0.058669001 0.077100001
0.03002 0.059211999 0.076295003
0.037073001 0.0579 0.081200004
0.027575999 0.060217001 0.073752001
0.027581999 0.061430998 0.073417
0.029955 0.062407002 0.072922997
0.030459 0.063097998 0.074556001
0.030472999 0.063203 0.073656999
0.051837001 0.062406 0.087531999
0.051816002 0.064557999 0.086594
0.053041998 0.064032003 0.086533003
0.054962002 0.063348003 0.088657998
0.057998002 0.065217003 0.089204997
0.029214 0.069034003 0.072306
0.059273001 0.066385001 0.089529999
0.028247001 0.069381997 0.070730999
0.059252001 0.066693999 0.090457
0.060950998 0.067247003 0.090631001
0.026241999 0.070739001 0.069789
0.061583001 0.068906002 0.089737996
0.062437002 0.070808999 0.090868004
0.063162997 0.072554998 0.089377001
0.028674001 0.075746998 0.068939
0.062385999 0.073772997 0.088062003
0.061294999 0.073467001 0.088546
0.060180999 0.075625002 0.087385997
0.059521001 0.075758003 0.086893998
0.033234999 0.078638002 0.069874004
0.058793001 0.077165999 0.085213996
0.03638 0.079392999 0.07254
0.039025001 0.080288999 0.072522998
0.054676998 0.078666002 0.081656002
0.053922001 0.078319997 0.081928
0.040975001 0.079754002 0.073495001
0.052457999 0.079699002 0.079823002
0.053562 0.078864001 0.080767997
0.054938 0.080099002 0.082207002
0.039039001 0.081641003 0.071314998
0.040431999 0.081924997 0.072589003
0.039299 0.080578998 0.072659999
0.038476001 0.082592003 0.070401996
0.036378998 0.082331002 0.070477001
0.037505999 0.083089001 0.069151998
0.058761999 0.080834001 0.084154002
0.035489999 0.084307 0.068489999
0.036387999 0.084715001 0.069167003
0.057661999 0.083701 0.081873998
0.037324999 0.084778003 0.06961
0.056650002 0.083915003 0.080945
0.031932998 0.058596 0.077556998
0.034175001 0.05816 0.079299003
0.04163 0.057874002 0.082700998
0.042332001 0.05883 0.083338
0.028577 0.058458999 0.075502001
0.027977001 0.059656002 0.075438
0.04293 0.059693001 0.083039999
0.044966999 0.058674999 0.084412999
0.046427999 0.059691999 0.086007997
0.046650998 0.059510998 0.084688
0.027985999 0.063313998 0.074325003
0.046967998 0.060029 0.085617997
0.049068999 0.061221 0.086312003
0.050149001 0.061119001 0.087024003
0.034550998 0.063496999 0.077431999
0.033663999 0.065204002 0.076385997
0.034591001 0.064842001 0.076912999
0.031385001 0.066499002 0.073538996
0.030546 0.068201996 0.072875001
0.029417999 0.066408001 0.073624
0.061624002 0.069496997 0.090483002
0.061737001 0.068720996 0.090639003
0.027454 0.07333 0.068639003
0.027450001 0.075378999 0.068248004
0.031987 0.078666002 0.069453999
0.059659 0.076843001 0.087192997
0.035156 0.079053998 0.070597
0.057229999 0.077233002 0.084466003
0.056125998 0.077858001 0.082799003
0.040282 0.080604002 0.072938003
0.035696998 0.083241001 0.069429003
0.059657 0.082300998 0.082664996
0.058711 0.083264999 0.083205
0.048487 0.084167004 0.075571001
0.049424 0.083967 0.077243
0.053941 0.084242001 0.080220997
0.040107001 0.086493 0.070950001
0.041807 0.085826002 0.071654998
0.043225002 0.084976003 0.073728003
0.044748001 0.085029997 0.074123003
0.051902998 0.084518 0.077719003
0.033085998 0.057893999 0.078057997
0.053241 0.063440003 0.087921999
0.026958 0.068916 0.070973001
0.027814999 0.076924004 0.067749999
0.062458999 0.074230999 0.090581
0.061604001 0.074772 0.088225
0.055902001 0.078974999 0.082873002
0.034841999 0.085643001 0.068332002
0.043253999 0.085538 0.073330998
0.032543 0.064984001 0.076292999
0.052517001 0.062527999 0.088298999
0.028976001 0.067766003 0.072734997
0.057411999 0.064733997 0.090488002
0.061259001 0.067569003 0.090801001
0.02507 0.073187001 0.067392997
0.02623 0.075305 0.068447001
0.029008999 0.077615 0.067484997
0.059912998 0.076269001 0.088468
0.036819 0.079561003 0.071387999
0.05601 0.078349002 0.084215
0.057239 0.080912001 0.084579997
0.060045 0.082390003 0.084473997
0.059308998 0.080774002 0.085289001
0.034538999 0.084671997 0.068915002
0.060238 0.083002001 0.084729001
0.052586999 0.085525997 0.078752004
0.037643 0.057684999 0.082409002
0.038913 0.057449002 0.083599001
0.028263999 0.060031999 0.076573998
0.026811 0.061473001 0.074205004
0.026418 0.061503001 0.073315002
0.028945001 0.063532002 0.073971003
0.053502001 0.063977003 0.089031003
0.057286002 0.065353997 0.090282999
0.028054999 0.068097003 0.071827002
0.059801999 0.066073 0.090767004
0.023513 0.071292996 0.069025002
0.063992001 0.070836 0.091668002
0.064163998 0.073366001 0.090994999
0.061666001 0.074934997 0.089254998
0.029902 0.077643998 0.069629997
0.035105001 0.079233997 0.071356997
0.056896001 0.077687003 0.085042998
0.03638 0.081652001 0.071937002
0.033677999 0.084175996 0.068943001
0.033696 0.083564997 0.069039002
0.060578998 0.081630997 0.084688
0.037183002 0.087090001 0.070332997
0.029713999 0.059069999 0.077395
0.030851001 0.058910999 0.079198003
0.028643001 0.060430001 0.076908
0.036189999 0.05883 0.081579
0.035057001 0.059397999 0.080618002
0.043494999 0.059751999 0.085799001
0.025962999 0.062775999 0.073279999
0.030232999 0.064607002 0.075329997
0.031447999 0.064485997 0.075966001
0.053399 0.063000001 0.089883998
0.031146999 0.065190002 0.075538002
0.031025 0.066396996 0.075237997
0.055915002 0.064375997 0.090677999
0.056095999 0.064227 0.091344997
0.028399 0.066509001 0.072516002
0.058988001 0.065652996 0.091908999
0.025826 0.070299 0.070052996
0.062215999 0.069425002 0.091136001
0.035827 0.081519 0.071158998
0.057335999 0.079632998 0.083621003
0.061709002 0.084275 0.08557
0.028093001 0.059420001 0.076660998
0.042082999 0.058977999 0.085206002
0.025969001 0.062295999 0.074589998
0.027061 0.060474999 0.074946001
0.027140999 0.060520001 0.076054998
0.025495 0.063222997 0.074049003
0.025214 0.064866997 0.072938003
0.047256 0.061733998 0.086787
0.047928002 0.061579 0.087844998
0.026866 0.063423999 0.073781997
0.027573001 0.063865997 0.073645003
0.051897999 0.063056 0.089433998
0.052937999 0.062880002 0.089492001
0.029045001 0.067037001 0.074037001
0.057436999 0.064753003 0.091861002
0.027308 0.067557 0.072733998
0.059441 0.065733001 0.091495998
0.026317 0.069068998 0.071732
0.026667001 0.068639003 0.072306998
0.061877999 0.066845 0.092242002
0.063317999 0.069223002 0.092345998
0.025229 0.072926 0.069062002
0.024215 0.072815999 0.068585999
0.024723001 0.074389003 0.069541
0.063654996 0.071409002 0.091252998
0.025531 0.075410001 0.067988999
0.063721001 0.072227001 0.091031
0.025975 0.076568998 0.067147002
0.063823998 0.074000999 0.091169
0.025847999 0.077596001 0.068172
0.027107 0.079062998 0.067918003
0.063872002 0.075739004 0.090512
0.028857 0.078821003 0.068824001
0.029170999 0.078993998 0.069022998
0.030114001 0.080012001 0.069638997
0.061618 0.077679999 0.088568002
0.031360999 0.079043999 0.069202997
0.032968 0.079700001 0.070894003
0.057108 0.078823999 0.085837997
0.033987001 0.080977 0.070419997
0.058267001 0.078084998 0.086051002
0.057041999 0.079329997 0.085221
0.035928998 0.080371998 0.072162002
0.057895001 0.080211997 0.085162997
0.034846 0.082336999 0.070750996
0.058384001 0.080452003 0.084879003
0.060247 0.080743998 0.084689997
0.060800999 0.081648998 0.086521998
0.033796001 0.083543003 0.067936003
0.032340001 0.084244996 0.068102002
0.06154 0.082760997 0.086002
0.033372 0.085547 0.068135001
0.060945 0.084691003 0.084473997
0.033957001 0.086539999 0.068402
0.058901999 0.084431998 0.083897002
0.034586001 0.085932001 0.069352999
0.037695002 0.085951 0.070496
0.039951999 0.085543998 0.073082
0.043173999 0.085721001 0.073746003
0.046204001 0.08529 0.075655997
0.051842999 0.084550999 0.079846002
0.050012998 0.084711999 0.078969002
0.052288 0.084660001 0.081352003
0.056148998 0.084156998 0.082800001
0.057326999 0.084994003 0.082382999
0.034469001 0.058437999 0.079774
0.031683002 0.058676999 0.079922996
0.033546001 0.059362002 0.080545999
0.040454999 0.059158999 0.083957002
0.040901002 0.059094001 0.084119998
0.044261999 0.060137998 0.085514002
0.046179 0.062738001 0.086221002
0.049837999 0.062935002 0.087982997
0.050969999 0.062916003 0.088334002
0.028638 0.064127997 0.075024001
0.059687998 0.065479003 0.092428997
0.024541 0.070211001 0.070253998
0.063349999 0.069600001 0.092326999
0.063895002 0.069899 0.092495002
0.0241 0.074667998 0.067846999
0.064640999 0.071281999 0.093045004
0.064737998 0.072887003 0.092432998
0.063646004 0.073585004 0.090424001
0.058974002 0.078501001 0.088211998
0.034010999 0.081712998 0.071468003
0.032198999 0.083071999 0.069045
0.060479999 0.081430003 0.087035999
0.061574999 0.082883999 0.087197997
0.046898 0.085688002 0.076374002
0.053879 0.084830001 0.081212997
0.055571001 0.084406003 0.080908999
0.038727 0.058655001 0.082018003
0.038509998 0.058228999 0.083278999
0.042125002 0.059445001 0.086237997
0.029501 0.06611 0.075525999
0.055275001 0.063698001 0.090048
0.062307 0.067383997 0.093342997
0.023445999 0.073399998 0.068184003
0.023870001 0.075432003 0.068383999
0.063185997 0.075595997 0.091311
0.032488 0.080646001 0.070394002
0.058616001 0.078273997 0.085785002
0.059057001 0.080453001 0.086820997
0.030857 0.085229002 0.068216003
0.031603999 0.085721001 0.068379
0.041108999 0.085198 0.072264001
0.049082998 0.085187003 0.077394001
0.031746998 0.059753999 0.080844998
0.035351001 0.059356 0.082208999
0.035978001 0.058534 0.081637003
0.025231 0.064854003 0.074435003
0.024572 0.068897001 0.070565
0.062410001 0.069219999 0.093119003
0.023600001 0.071152002 0.069069996
0.02376 0.077189997 0.067420997
0.026962999 0.079196997 0.068201996
0.062587 0.076908 0.089432999
0.032554999 0.079255 0.070996001
0.030626999 0.084683001 0.068989001
0.061795 0.083800003 0.086790003
0.044326 0.085965 0.074663997
0.047396999 0.085249998 0.077932
0.030874999 0.059762999 0.079744004
0.028992999 0.059574001 0.077996001
0.043747999 0.060438 0.086645998
0.055358998 0.065104999 0.092454001
0.025311001 0.069234997 0.072925001
0.058145002 0.066068001 0.092825003
0.024985 0.069371998 0.071015
0.06098 0.066395998 0.093648002
0.062587999 0.068117 0.095071003
0.064306997 0.074024998 0.092868999
0.064737 0.073138997 0.092205003
0.030102 0.080582 0.071047999
0.060453001 0.080066003 0.086191997
0.031521 0.083319001 0.069964997
0.062590003 0.081565998 0.08766
0.041870002 0.086414002 0.075213999
0.029379999 0.059640002 0.078791998
0.034710001 0.059080999 0.081632003
0.040109999 0.059992999 0.084811002
0.040608 0.058989 0.085525997
0.041593999 0.060779002 0.086498
0.026802 0.061085999 0.076062001
0.026380001 0.061342001 0.076670997
0.024999 0.061781999 0.075291
0.02472 0.062426001 0.074501
0.045077998 0.060504999 0.087517001
0.046190999 0.061772998 0.087858997
0.024137 0.063499004 0.074484996
0.024563 0.06543 0.073937997
0.025394 0.065100998 0.073949002
0.051270999 0.063991003 0.091332003
0.02833 0.066035002 0.075677998
0.026973 0.065782003 0.074279003
0.053665999 0.064410001 0.091256998
0.054559998 0.063840002 0.091595002
0.027793 0.066873997 0.073485002
0.026067 0.066935003 0.073683001
0.059455998 0.065664999 0.093906
0.024670999 0.068411998 0.072593004
0.060040999 0.066399001 0.093819998
0.023021 0.068608999 0.071712002
0.061859 0.065564997 0.095757999
0.023243999 0.069920003 0.070058003
0.062904999 0.067534 0.095945999
0.021423999 0.071148001 0.070376001
0.062987998 0.068686999 0.094627
0.065145999 0.070890002 0.094627
0.064686 0.071258001 0.095188998
0.023402 0.074399002 0.068359002
0.023646999 0.076335996 0.067850001
0.064581998 0.072981 0.092899002
0.065706 0.073523 0.093649
0.023148 0.078050002 0.067919001
0.026094999 0.078208998 0.068850003
0.024127999 0.079294004 0.068554997
0.063322 0.076347999 0.092499003
0.062238 0.076970004 0.091738001
0.025560999 0.079099998 0.068605997
0.026742 0.080219999 0.068403997
0.028402001 0.080544002 0.068263002
0.061521001 0.077592999 0.089978002
0.030263999 0.079775997 0.070840999
0.059183002 0.078768998 0.087898001
0.060159001 0.077568002 0.089349002
0.032224 0.081376001 0.070937999
0.033202 0.081767 0.071004003
0.032908 0.081473999 0.070955999
0.059211001 0.079103999 0.087324001
0.060832001 0.080820002 0.087021001
0.059640002 0.080399998 0.087958999
0.061639 0.080812998 0.088243
0.030683 0.084515996 0.068847001
0.030134 0.084446996 0.068681002
0.062066 0.082611002 0.088735998
0.062027998 0.084553003 0.087835997
0.063000999 0.083435997 0.088522002
0.029637 0.086575001 0.068576001
0.029988 0.085602 0.067597002
0.061028998 0.084995002 0.087073997
0.032963 0.086457998 0.069669999
0.030448999 0.087517999 0.068924002
0.033796001 0.087173 0.070656002
0.035580002 0.086361997 0.070697002
0.036536999 0.085979998 0.071153998
0.046810001 0.085484996 0.078198001
0.051282998 0.085896 0.079242997
0.051594999 0.085983999 0.081560001
0.056765001 0.084233999 0.083769999
0.060033001 0.084165998 0.085346997
0.032326002 0.059896 0.081311002
0.036408 0.059617002 0.083244003
0.038862001 0.059806999 0.084974997
0.027511001 0.060157999 0.077049002
0.042815 0.059877999 0.086231001
0.047531001 0.062183 0.088478997
0.049105 0.063188002 0.089231998
0.027241999 0.065600999 0.074772
0.056598 0.064539999 0.091670997
0.057693001 0.065408997 0.093321003
0.023078 0.071543001 0.069872998
0.065540001 0.070303999 0.094888002
0.021438999 0.074197002 0.069123
0.022143001 0.077238999 0.068581
0.063139997 0.075505003 0.093129002
0.030044001 0.081128001 0.071294002
0.062504001 0.082193002 0.089040004
0.036929 0.087513998 0.072803997
0.049114998 0.086369 0.079575002
0.055286001 0.084494002 0.083457001
0.050542999 0.062807001 0.090231001
0.025539 0.065534003 0.074362002
0.025063001 0.067700997 0.072770998
0.064450003 0.068764001 0.096135996
0.060695998 0.079492003 0.089206003
0.032099999 0.082415998 0.070877001
0.043701999 0.086176001 0.076550998
0.045102 0.086604998 0.076486997
0.046440002 0.085996002 0.077637002
0.029183 0.06019 0.078805
0.027891999 0.060164001 0.079917997
0.032531999 0.059739001 0.081054002
0.031676002 0.060851 0.081015997
0.044360001 0.062235001 0.088587001
0.043547001 0.062775999 0.088
0.046886999 0.062015001 0.089792997
0.048214 0.063011996 0.089919001
0.023437999 0.066218004 0.074019998
0.023189999 0.063795999 0.074506
0.061629001 0.066138998 0.095825002
0.022575 0.077698998 0.06842
0.064967997 0.074625999 0.094623998
0.060451001 0.079618998 0.088973999
0.064136997 0.082782 0.090302996
0.039910998 0.086297996 0.073666997
0.038056999 0.085975997 0.072713003
0.048684001 0.0858 0.079067998
0.058178 0.085148998 0.085377999
0.032453001 0.060832001 0.08309
0.025167 0.063474 0.076442003
0.049180001 0.062417999 0.090386003
0.024699001 0.067864001 0.073775999
0.021969 0.070294999 0.070550002
0.02134 0.072186001 0.069641002
0.063736998 0.067298003 0.097154997
0.064667001 0.070497997 0.096950002
0.022188 0.075289004 0.068490997
0.026001001 0.079360999 0.069300003
0.063715003 0.077522002 0.092702001
0.027913 0.081920996 0.071116999
0.027759001 0.081205003 0.070422001
0.028396999 0.080072999 0.070651002
0.029898001 0.082511999 0.070483997
0.028362 0.085983001 0.068507999
0.030641999 0.086989 0.069712996
0.042374998 0.086452998 0.075864002
0.052654002 0.085414998 0.082010001
0.051697001 0.095174998 0.078442998
0.052393001 0.095859997 0.076814003
0.053757999 0.096267998 0.078598998
0.052715 0.094333 0.079193003
0.038885999 0.060497999 0.086300001
0.040162999 0.059881002 0.085942
0.027447 0.061608002 0.078239001
0.04208 0.062134001 0.086333998
0.023871001 0.063885003 0.075810999
0.024676999 0.063514002 0.07564
0.021836 0.065154999 0.074948996
0.045325998 0.062632002 0.088482
0.023936 0.065780997 0.07536
0.024390001 0.066344 0.073766999
0.056037001 0.065628998 0.093676001
0.054999001 0.064474002 0.094369002
0.059569001 0.066114001 0.095466003
0.061872002 0.066434003 0.096454002
0.062807001 0.067740999 0.096202999
0.020987 0.070720002 0.070169002
0.064346001 0.068870001 0.095881
0.020300001 0.073168002 0.069514997
0.065716997 0.072695002 0.095367
0.021256 0.076462999 0.068159997
0.066099003 0.073554002 0.095980003
0.022559 0.077720001 0.069210999
0.021974999 0.079572 0.068199001
0.064388998 0.075746 0.094011001
0.024196999 0.078639001 0.068705998
0.024622999 0.081054002 0.070184998
0.06177 0.078201003 0.091296002
0.025212999 0.080747001 0.069787003
0.060874999 0.078403004 0.090407997
0.061177 0.079030998 0.091600001
0.061402 0.080975004 0.089552
0.028408 0.084573999 0.070695996
0.028410999 0.084648997 0.069343001
0.027364001 0.085533999 0.068742
0.027752001 0.088483997 0.068245001
0.029135 0.086239003 0.068124004
0.063813001 0.084028997 0.090203002
0.029410001 0.087981001 0.069656998
0.040142 0.086237997 0.07626
0.043315001 0.086764999 0.078138001
0.054540001 0.085454002 0.083031997
0.061446 0.084491 0.088849999
0.050762001 0.093556002 0.078195997
0.051718999 0.093309999 0.079305001
0.053791001 0.093629003 0.079451002
0.049761001 0.095643997 0.077104002
0.054115999 0.094691001 0.079430997
0.052731 0.093323 0.079805002
0.054772001 0.095688999 0.079910003
0.051385999 0.095922001 0.075461
0.050648 0.097773999 0.076499999
0.050967999 0.097801 0.077111997
0.052064002 0.097244002 0.077533998
0.054469999 0.097098999 0.078387998
0.05486 0.097352996 0.078748003
0.034410998 0.060961999 0.083764002
0.035314001 0.060734998 0.083030999
0.036729999 0.059909001 0.084123999
0.037409998 0.060686 0.085786
0.025911 0.062006999 0.077593997
0.023149 0.066071004 0.073601998
0.049982999 0.062385999 0.090999998
0.050510999 0.063697003 0.092193998
0.053603999 0.0638 0.092740998
0.022945 0.068281002 0.073486999
0.059502002 0.065484002 0.096473999
0.022417 0.069531001 0.071806997
0.021950999 0.069298998 0.071734004
0.021408999 0.069898002 0.071777999
0.020543 0.071827002 0.071199998
0.020524001 0.072916999 0.070330001
0.065324999 0.069707997 0.097857997
0.019181 0.075351998 0.068504997
0.066913001 0.072191 0.095967002
0.063924 0.077032 0.094286002
0.062877998 0.078415997 0.092350997
0.061064001 0.079313003 0.089997001
0.029058 0.082061 0.071203001
0.029424001 0.082689002 0.070648998
0.061245002 0.080270998 0.091026999
0.061894 0.081427 0.090315998
0.029375 0.082707003 0.070316002
0.063794002 0.082782 0.091459997
0.063334003 0.082895003 0.090828001
0.062153999 0.084719002 0.089988001
0.034072999 0.087989002 0.072347
0.042557999 0.085825004 0.077349998
0.059524 0.084812999 0.087327003
0.050971001 0.093124002 0.079526
0.051702999 0.093043 0.078872003
0.049089 0.092550002 0.078924999
0.050122 0.094191 0.077491999
0.049862999 0.094720997 0.077597
0.048567001 0.093866996 0.077105999
0.049807999 0.095296003 0.077036001
0.049771 0.094989002 0.076733999
0.049733002 0.096444003 0.076040998
0.054760002 0.094903998 0.080155998
0.048609 0.097113997 0.076146998
0.055610001 0.096092001 0.081029996
0.054993 0.098073997 0.079479001
0.053865999 0.098858997 0.078031003
0.052420001 0.098306 0.076848
0.051034 0.099555999 0.076640002
0.030586001 0.06016 0.080744997
0.029712999 0.059560001 0.081340998
0.028152 0.060656998 0.079336002
0.027712001 0.062132999 0.080058001
0.037831001 0.061689999 0.084563002
0.038754001 0.061404999 0.086076997
0.025891 0.061728001 0.077588998
0.051621001 0.063160002 0.090957001
0.052572001 0.063943997 0.092231996
0.021476001 0.068614997 0.073408999
0.063885003 0.066715002 0.097273998
0.019212 0.072784998 0.069546998
0.019628 0.072608002 0.069002002
0.065917999 0.071953997 0.097107999
0.065444998 0.075046003 0.094792999
0.063602999 0.077408999 0.093884997
0.060894001 0.079976998 0.089916997
0.065187 0.083388999 0.091780998
0.064324997 0.083855003 0.091053002
0.027267 0.085817002 0.068017997
0.027061 0.087706998 0.068759002
0.038054999 0.087227002 0.074908003
0.041857 0.086635001 0.077404
0.045157999 0.086438 0.077694997
0.060736999 0.083663002 0.087320998
0.048004001 0.093909003 0.077959999
0.048131999 0.095813997 0.076350003
0.053296 0.094421998 0.081083998
0.049674001 0.097282 0.075627998
0.052816998 0.098650999 0.077380002
0.034003999 0.06216 0.083237998
0.035958 0.062183 0.084455997
0.039802 0.061985001 0.087087996
0.044553 0.061751999 0.089063004
0.022294 0.066205002 0.074390002
0.054095998 0.064283997 0.093805999
0.057285 0.065076999 0.094962001
0.064917997 0.069200002 0.097856
0.065484002 0.073917001 0.095501997
0.020274 0.078277998 0.068406001
0.065668002 0.075759001 0.094832003
0.024040001 0.080197997 0.069596998
0.061709002 0.078575999 0.091966003
0.028356001 0.083642997 0.070220999
0.064304002 0.083194003 0.091215
0.063937001 0.084898002 0.090809003
0.035142001 0.088033997 0.073021002
0.047796 0.086305998 0.080723003
0.054947998 0.086377002 0.084766001
0.045731999 0.092491001 0.077088997
0.046973001 0.094112001 0.076324999
0.051518999 0.092625 0.079779997
0.054628 0.094855003 0.081799999
0.055698 0.096467003 0.081836998
0.055438001 0.094504997 0.081946999
0.055929001 0.098283 0.080150999
0.054977998 0.099448003 0.079411
0.052170001 0.10096 0.077393003
0.062391002 0.13732 0.065548003
0.060552999 0.13731 0.065315001
0.061353002 0.13829 0.066549003
0.061278999 0.13839 0.06605
0.061703999 0.13869999 0.065592997
0.063625999 0.13808 0.067923002
0.063169003 0.1397 0.066586003
0.062932998 0.14033 0.066059001
0.063079 0.14123 0.065788999
0.064152002 0.14108001 0.067119002
0.061942 0.14140999 0.06476
0.062367 0.14318 0.065566003
0.063504003 0.14181 0.065869004
0.021077 0.069844998 0.073609002
0.066858001 0.073432997 0.097640999
0.061889 0.080986999 0.090497002
0.026507 0.086402997 0.068140998
0.031451002 0.087658003 0.070643999
0.055962998 0.086010002 0.085394002
0.057794999 0.085322 0.086259
0.047924001 0.096210003 0.077104002
0.05314 0.10019 0.078163996
0.051741999 0.10011 0.076553002
0.060959 0.13440999 0.067560002
0.059434999 0.13357 0.067437001
0.059937 0.13417 0.066678002
0.058226999 0.13503 0.066485003
0.059062 0.13654 0.064667001
0.06047 0.13538 0.067515001
0.061680999 0.13523 0.067330003
0.061934002 0.13610999 0.068671003
0.062236998 0.13756999 0.067950003
0.059613999 0.13777 0.065550998
0.059436999 0.13839 0.065558001
0.064473003 0.13966 0.068511002
0.059308 0.13991 0.065425999
0.059896 0.14151999 0.065081999
0.065398999 0.14094 0.067763999
0.061983999 0.14202 0.065741003
0.065728001 0.14320999 0.068164997
0.065342002 0.14437 0.066114001
0.060189001 0.14348 0.064052001
0.060867 0.14451 0.064911
0.062286999 0.14462 0.065118
0.062034 0.14374 0.064999998
0.064324997 0.14428 0.066436999
0.065454997 0.14549001 0.065103002
0.065927997 0.14517 0.066812001
0.064400002 0.14497 0.065288
0.064782001 0.14650001 0.066333003
0.035103999 0.061888002 0.083837003
0.041777998 0.062542997 0.087292001
0.022284999 0.066590004 0.074735999
0.064211003 0.068149 0.098229997
0.018851001 0.072286002 0.070754997
0.066618003 0.072531 0.097208001
0.066251002 0.071249999 0.098182999
0.019037001 0.076312996 0.068705
0.066922002 0.073889002 0.098536
0.066252999 0.074354 0.096598998
0.066779003 0.075303003 0.097473003
0.02612 0.081015997 0.070593998
0.026689 0.084660999 0.071186997
0.035969 0.087458 0.073564
0.045735002 0.085028 0.079249002
0.049963001 0.085934997 0.081023999
0.048861001 0.087172002 0.080877997
0.052869 0.086202003 0.083962001
0.053335998 0.085980996 0.08433
0.046861 0.097336002 0.077065997
0.057808001 0.13153 0.069265999
0.057438999 0.13301 0.067748003
0.059687 0.13270999 0.068632998
0.060692001 0.13319001 0.068246
0.057808001 0.13336 0.067025997
0.067293003 0.13260999 0.072719
0.066717997 0.13162 0.073683999
0.066133998 0.13332 0.073381998
0.056499999 0.13383999 0.067229003
0.056786001 0.13417 0.066073999
0.067676999 0.1336 0.073463999
0.066845 0.13420001 0.072953001
0.067157999 0.13579001 0.072384
0.062148999 0.13467 0.068943001
0.068051003 0.13452999 0.072010003
0.069801003 0.1347 0.073082
0.058256 0.13683 0.066785999
0.057631999 0.13753 0.065903001
0.067759998 0.13700999 0.072108999
0.070139997 0.13751 0.072439998
0.063619003 0.13748001 0.068317004
0.058465999 0.13913 0.065591998
0.070233002 0.13802999 0.072121002
0.064084001 0.13821 0.068942003
0.068778001 0.13781001 0.072125003
0.065211996 0.14030001 0.068084002
0.066160001 0.14106999 0.068630002
0.065484002 0.14208999 0.068511002
0.065562002 0.14455 0.067685001
0.066765003 0.14523999 0.067574002
0.061889 0.14606 0.065072998
0.060575999 0.14673001 0.063850001
0.066308998 0.14658 0.066772997
0.063193999 0.14786001 0.064479001
0.062227 0.14697 0.064273
0.064359002 0.14833 0.065109
0.064854003 0.14771 0.065148003
0.067910999 0.14786001 0.067086004
0.066349998 0.14704999 0.06617
0.029991999 0.061751999 0.082069002
0.025599999 0.062169999 0.080467001
0.032834001 0.061841 0.082528003
0.02414 0.062849 0.078836001
0.035232 0.062073998 0.084390998
0.037969999 0.063116997 0.085607
0.039386 0.062742002 0.085763
0.040759999 0.063625999 0.087255001
0.045575 0.062531002 0.090267003
0.021575 0.065424003 0.074528001
0.047431 0.063151002 0.090879999
0.048315998 0.063763998 0.092776
0.050205 0.064332999 0.093188003
0.020235 0.066915996 0.074709997
0.020871 0.068965003 0.074702002
0.062983997 0.067460001 0.098010004
0.062270999 0.067290999 0.098720998
0.064993002 0.068631001 0.099091001
0.021292999 0.080286004 0.069311999
0.021531001 0.079783 0.068760999
0.065356001 0.075577997 0.096152999
0.022403 0.081153996 0.068478003
0.062403001 0.078140996 0.094127998
0.025288001 0.082047001 0.070343003
0.027187999 0.083403997 0.070734002
0.063395999 0.081596002 0.093323
0.025598999 0.085000999 0.068029001
0.065117002 0.083622999 0.092003003
0.064836003 0.082817003 0.093826003
0.064902999 0.083989002 0.092649996
0.063723996 0.085506998 0.092531003
0.02744 0.088400997 0.070271
0.035459999 0.087543003 0.073050998
0.051181 0.085442998 0.083232
0.037179999 0.093878001 0.071171001
0.037296001 0.094756998 0.071286
0.038288999 0.094316997 0.072370999
0.037390001 0.093144 0.072253004
0.045685999 0.093532003 0.078714997
0.051886 0.094026998 0.079879001
0.054494001 0.093454003 0.081657998
0.055256002 0.093741 0.082585998
0.055273999 0.094892003 0.082277
0.057548001 0.094754003 0.083494999
0.052632999 0.095494002 0.080784999
0.052388001 0.095113002 0.081698999
0.056839999 0.095815003 0.082780004
0.056752998 0.096078999 0.083093002
0.050345998 0.098954998 0.077753998
0.054113001 0.099407002 0.078897998
0.052545998 0.10252 0.077781998
0.053952999 0.10212 0.078630999
0.063681997 0.12881 0.073679
0.066047996 0.12875 0.073145002
0.06487 0.1283 0.073381998
0.063363999 0.13112 0.073014997
0.065507002 0.1302 0.073478997
0.059491001 0.12971 0.068623997
0.056972999 0.13071001 0.068838999
0.066954002 0.13156 0.073288999
0.055627 0.13146999 0.067470998
0.057353999 0.13332 0.067253999
0.060745999 0.13231 0.068855003
0.068052001 0.13055 0.075455002
0.066941001 0.13033 0.073778003
0.066922002 0.13215999 0.074125998
0.061409999 0.13353001 0.069871999
0.068805002 0.13271999 0.074695997
0.068714999 0.13375001 0.073863
0.062403999 0.13586 0.071193002
0.063049003 0.13510001 0.071200997
0.062100999 0.13623001 0.068663999
0.067401998 0.13707 0.072296001
0.069527999 0.13880999 0.071654998
0.064483002 0.13966 0.069124997
0.069865003 0.13976 0.071578003
0.071267001 0.14138 0.071128003
0.070409 0.14184 0.072160996
0.058825001 0.14079 0.064379998
0.058662001 0.14117999 0.064684004
0.05816 0.14126 0.065323003
0.068893999 0.14140999 0.071857996
0.067171 0.14545999 0.067760997
0.061388999 0.14632 0.064448997
0.068067998 0.14625999 0.067084
0.064424001 0.14982 0.064859003
0.062501997 0.14697 0.063624002
0.062265001 0.14945 0.063629001
0.067216001 0.14934 0.066124
0.064125001 0.14984 0.065249003
0.028202999 0.061774999 0.081092
0.03052 0.061776001 0.082180001
0.025908999 0.061441001 0.080026001
0.032838002 0.062743999 0.083342999
0.02406 0.063667998 0.077919997
0.036111999 0.063170999 0.084904999
0.035985999 0.063029997 0.084252998
0.037149001 0.062859997 0.085276
0.041962001 0.063229002 0.087569997
0.021926001 0.064566001 0.077666
0.034634002 0.063515 0.083618
0.040584002 0.064010002 0.086421996
0.039023001 0.063409999 0.086759001
0.041852999 0.062983997 0.087553002
0.046971999 0.063138999 0.091218002
0.039131999 0.064776003 0.085708998
0.042174999 0.064686999 0.087304004
0.038842 0.064921997 0.085380003
0.041037999 0.064407997 0.086115003
0.021104001 0.067363001 0.074382998
0.051516999 0.064405002 0.093463004
0.052521002 0.063824996 0.093663
0.022642 0.06707 0.074762002
0.055434 0.06577 0.095932998
0.052926 0.06442 0.095142998
0.058038998 0.065920003 0.096510999
0.060632002 0.066091999 0.097646996
0.060495 0.065811001 0.097629003
0.020253001 0.069426 0.072826996
0.019533999 0.070056997 0.071934
0.064219996 0.066821001 0.099843003
0.018726001 0.070791997 0.072617002
0.065407999 0.069114998 0.099656001
0.066023998 0.070067003 0.098568998
0.017944001 0.077177003 0.068475001
0.017885 0.076637 0.068512
0.017724 0.075846002 0.070748001
0.065135002 0.076171003 0.096427999
0.064778 0.077613004 0.095833004
0.063908003 0.077730998 0.094839998
0.021852 0.081767999 0.069514997
0.025211999 0.081643 0.070285998
0.062125001 0.079236001 0.093091004
0.062788002 0.080352999 0.092396997
0.025525 0.083682001 0.069784999
0.025162 0.085297003 0.070719004
0.024535 0.085927002 0.068425998
0.025712 0.087577999 0.068576999
0.029624 0.087691002 0.071823999
0.030306 0.087907001 0.072007999
0.033156998 0.086574003 0.071661003
0.032908998 0.087908 0.073991999
0.032428999 0.087251998 0.072916999
0.044360999 0.086746 0.080609001
0.062925003 0.085367002 0.092050999
0.037696999 0.094205 0.073720999
0.036258999 0.093261003 0.072857998
0.046705 0.093526997 0.079709999
0.038114 0.094002999 0.07305
0.034986999 0.094039001 0.071532004
0.050914001 0.094374999 0.081260003
0.039638001 0.095624998 0.071943
0.038713999 0.095637999 0.072892003
0.051024999 0.093436003 0.080146998
0.035034999 0.095908999 0.071337998
0.036832001 0.095802002 0.071934998
0.039007999 0.096865997 0.073105998
0.037223 0.096979998 0.072120003
0.055181999 0.094779998 0.083839998
0.056681 0.094618998 0.084351003
0.046484001 0.093401998 0.077967003
0.046996001 0.096777 0.076651998
0.057358999 0.095412001 0.083388999
0.057287 0.095882997 0.083682001
0.056402002 0.096800998 0.082254998
0.055406 0.098177001 0.081703998
0.054529998 0.098874003 0.080615997
0.053911999 0.099613003 0.080467001
0.054772001 0.099474996 0.081315003
0.054726001 0.10066 0.078874998
0.054217 0.10236 0.078786001
0.051615998 0.10211 0.078332998
0.063028 0.12737 0.073886
0.063300997 0.1269 0.073896997
0.064957999 0.12613 0.074555002
0.063263997 0.12802 0.07316
0.063927002 0.12841 0.073801003
0.065484002 0.12799001 0.074343003
0.065348998 0.12851 0.074239001
0.064309999 0.12897 0.073032998
0.056430001 0.13011999 0.068732001
0.055071998 0.12980001 0.067755997
0.055617999 0.13079 0.067938998
0.058467001 0.1292 0.069466002
0.066073 0.12854999 0.074275002
0.065702997 0.13083 0.072975002
0.058989 0.13128 0.070119999
0.054361001 0.13287 0.067074001
0.055422999 0.13237999 0.066419996
0.064168997 0.13223 0.073297001
0.065122001 0.13244 0.072844997
0.061565999 0.13185 0.070201002
0.061074998 0.13202 0.069672003
0.064819999 0.13276 0.072394997
0.068379998 0.13138001 0.074504003
0.068007998 0.13257 0.074399002
0.054816999 0.13462999 0.066404
0.068980999 0.13352001 0.074033998
0.062679 0.13372 0.069875002
0.065454997 0.13448 0.072215997
0.066845 0.13575999 0.071823999
0.069738001 0.13343 0.075163998
0.071020998 0.13552999 0.073872998
0.067736 0.13767 0.071975999
0.067551002 0.1376 0.071694002
0.065900996 0.1389 0.070033997
0.064753003 0.13813999 0.069586001
0.072126001 0.13863 0.073000997
0.057484999 0.13955 0.065090001
0.071910001 0.14047 0.073013999
0.068285003 0.13945 0.071984001
0.059147999 0.14320999 0.064916998
0.065810002 0.14154001 0.070515998
0.071264997 0.14189 0.071445003
0.070409998 0.14295 0.071314
0.058417 0.14383 0.063643999
0.070839003 0.14223 0.072512001
0.071641997 0.14387 0.072001003
0.072577 0.14361 0.072140001
0.058653999 0.1444 0.063887998
0.058890998 0.14580999 0.064043999
0.067704998 0.14391001 0.069128998
0.060832001 0.14624 0.063446
0.060136002 0.14697 0.063419998
0.060688999 0.14711 0.063623004
0.067721002 0.14545 0.069334999
0.068489999 0.14736 0.069375999
0.068136998 0.14823 0.067198001
0.068774998 0.14938 0.067381002
0.062815003 0.15015 0.064156003
0.063014001 0.15056001 0.063963003
0.066138998 0.15004 0.0656
0.06707 0.15048 0.065867998
0.062982 0.15129 0.064337
0.065148003 0.15154999 0.064845003
0.030262999 0.061705001 0.082465999
0.023829 0.063841 0.077478997
0.043602999 0.063148998 0.089319997
0.021287 0.065605998 0.076127999
0.020217 0.064721003 0.075976998
0.037377 0.064544 0.084311001
0.049293 0.063605003 0.092860997
0.043823 0.065784 0.087895997
0.044881999 0.064560004 0.088621996
0.040254999 0.065831997 0.084996998
0.037847999 0.065999001 0.084965996
0.043877002 0.066744 0.088133998
0.039969001 0.065710001 0.085717998
0.041763999 0.065732002 0.087241001
0.052857999 0.064521998 0.093961
0.022329001 0.068180002 0.074460998
0.056906998 0.065160997 0.096657
0.019668 0.069058001 0.073218003
0.018664001 0.072530001 0.070196003
0.064499997 0.068075001 0.099832997
0.017393 0.074602 0.069597997
0.065888003 0.072393999 0.098489001
0.018340001 0.078674003 0.067739002
0.019781001 0.078938998 0.06893
0.065577999 0.076021999 0.097453997
0.021857999 0.081409998 0.070203997
0.02455 0.081935003 0.069646999
0.024754001 0.082750998 0.070263997
0.062935002 0.081261002 0.093510002
0.065162003 0.083738998 0.093268998
0.025127999 0.085674003 0.069536999
0.024843 0.088262998 0.067419998
0.064822003 0.084798999 0.093144
0.027324 0.088629 0.070445001
0.046188001 0.086795002 0.081478998
0.048308 0.086630002 0.082924001
0.052207999 0.085942999 0.084711999
0.062720001 0.085000001 0.090448
0.048129998 0.093846001 0.079466999
0.041246999 0.094906002 0.074417002
0.039700001 0.092863999 0.074901998
0.034972999 0.095969997 0.070569001
0.053925999 0.095325001 0.081064999
0.046273001 0.095973 0.076877996
0.045139998 0.095260002 0.077593997
0.039696001 0.096165001 0.074566998
0.058524001 0.096224003 0.084738001
0.049449001 0.097167 0.078461997
0.049067002 0.097939998 0.077973001
0.049795002 0.098789997 0.077642001
0.050452001 0.10134 0.077735998
0.051876001 0.10253 0.077230997
0.054961 0.10265 0.080279998
0.060311999 0.12155 0.075194001
0.060794 0.12285 0.07463
0.062254999 0.12238 0.074748002
0.060802002 0.12438 0.074555002
0.062783003 0.12297 0.074115001
0.060961001 0.12577 0.074569002
0.063368 0.12503999 0.074065998
0.063892998 0.12513 0.075176999
0.062729999 0.12646 0.073971003
0.065159999 0.12654001 0.076476999
0.065860003 0.12794 0.075806998
0.056194 0.12640999 0.069565997
0.055140998 0.12864999 0.068953998
0.056586999 0.12828 0.068213999
0.057735 0.12799001 0.070432998
0.058913 0.12878001 0.070464
0.063560002 0.13106 0.073266998
0.055477001 0.1312 0.067189999
0.060268 0.13146 0.070942
0.065532997 0.13296001 0.073206998
0.069905996 0.13321 0.075741
0.055415001 0.13435 0.066835999
0.054907002 0.13573 0.064902999
0.064437002 0.13733999 0.069600001
0.057356 0.13744999 0.065591
0.065182999 0.13821 0.070952997
0.071277998 0.13722 0.073679
0.056047 0.13963 0.064617001
0.068746001 0.13947 0.071730003
0.071837999 0.13801 0.073425002
0.056371 0.14054 0.065629996
0.057519998 0.14191 0.063846
0.066152997 0.14295 0.069261
0.072015002 0.14261 0.073041998
0.067397997 0.14274999 0.069738999
0.070519 0.14371 0.070666999
0.067624003 0.14362 0.069211997
0.071402997 0.14546999 0.071933001
0.059687 0.14905 0.062804997
0.061283 0.14889 0.063844003
0.068011999 0.14862999 0.067804001
0.062251002 0.15009999 0.063612998
0.063603997 0.1504 0.064080998
0.068389997 0.15068001 0.06662
0.064998999 0.15166 0.064010002
0.067534 0.15219 0.065562002
0.066218004 0.15279999 0.064735003
0.033824999 0.064025 0.083474003
0.044828001 0.063525997 0.090026997
0.035498999 0.065076999 0.084376
0.036905002 0.066316999 0.083640002
0.043910999 0.066155002 0.087925002
0.045237999 0.065958001 0.089475997
0.039466999 0.068011001 0.085468002
0.044817001 0.066771001 0.089359
0.038738001 0.067942001 0.084507003
0.040878002 0.067066997 0.086525001
0.042962 0.067152999 0.088087
0.043299999 0.067202002 0.086930998
0.057285 0.064992003 0.096735999
0.060005002 0.066496 0.097993001
0.017929999 0.071901999 0.071238004
0.016728001 0.073631003 0.070052996
0.024320999 0.085974999 0.068415001
0.039841998 0.087523997 0.077395
0.04036 0.087236002 0.078305997
0.041429002 0.086851001 0.078916997
0.042796001 0.086769998 0.079825997
0.049557 0.086248003 0.083825
0.050218999 0.086919002 0.083972
0.060045999 0.085426003 0.090089001
0.059464 0.084968001 0.090039
0.049348 0.093852997 0.080150001
0.036991999 0.097613998 0.072584003
0.058350001 0.095183 0.085440002
0.059620999 0.096000999 0.083802
0.057344001 0.098085999 0.08326
0.05376 0.10375 0.078270003
0.052708 0.10384 0.077679999
0.062059999 0.12108 0.076362997
0.054147001 0.12711 0.068699002
0.053392999 0.12828 0.067814998
0.053778999 0.1302 0.068346001
0.067309998 0.12849 0.074607998
0.061319999 0.13198 0.071984999
0.063523002 0.13593 0.071218997
0.065286003 0.13629 0.070887998
0.065784 0.13758001 0.071023002
0.056026999 0.13864 0.065177001
0.067585997 0.13889 0.071645997
0.066451997 0.13954 0.070711002
0.071872003 0.13923 0.074079998
0.073439002 0.14050999 0.073477998
0.057264999 0.14316 0.063086003
0.057215001 0.14465 0.063881002
0.072595999 0.146 0.072416998
0.073559999 0.14504001 0.073077999
0.058320001 0.14676 0.063350998
0.058414001 0.14839999 0.062965997
0.073523 0.14646 0.071824998
0.071553998 0.14670999 0.070730999
0.058763999 0.14872999 0.062514
0.068360999 0.14858 0.067851998
0.060082 0.15078001 0.062716
0.061834998 0.15178999 0.063860998
0.063644998 0.15244 0.063956998
0.067181997 0.15322 0.065494999
0.067915 0.15226001 0.066349
0.065915003 0.15396 0.064686
0.032600001 0.064089999 0.083567001
0.035177 0.065153003 0.083085001
0.045625001 0.063229002 0.091862001
0.035115 0.066267997 0.083391003
0.035881002 0.067639999 0.084321
0.043593001 0.068911001 0.087261997
0.040922001 0.068690002 0.085929997
0.042874001 0.069421999 0.087288
0.039887 0.069681004 0.085304998
0.064347997 0.067575 0.099123999
0.066373996 0.072457999 0.099454001
0.062091 0.079535998 0.094205998
0.037177 0.088191003 0.075984001
0.055229001 0.086231999 0.086888
0.054435998 0.085684001 0.086322002
0.056883998 0.085973002 0.087728001
0.034341 0.094273999 0.071019001
0.041072 0.093874998 0.075208001
0.040849999 0.094811 0.075310998
0.033778001 0.095565997 0.070804
0.053286001 0.096998997 0.082157999
0.061579999 0.095868997 0.085383996
0.060422 0.095184997 0.086306997
0.055148002 0.10006 0.081111997
0.059140999 0.11628 0.076935999
0.057870001 0.11622 0.075580999
0.059815999 0.11747 0.076237999
0.057868 0.11711 0.075896002
0.059659 0.11835 0.075686999
0.058426 0.1184 0.074481003
0.058387998 0.12069 0.075204998
0.059629001 0.11999 0.074883997
0.062010001 0.11793 0.076453999
0.061787002 0.11985 0.075361997
0.062590003 0.12273 0.076360002
0.063741997 0.12366 0.075957
0.065499 0.12496 0.075480998
0.053075999 0.12511 0.069472998
0.0524 0.12594 0.069613002
0.054042 0.12662999 0.070064999
0.055215001 0.12541001 0.069944002
0.052925002 0.12781 0.067996003
0.056637 0.12676001 0.070726998
0.05731 0.12895 0.071156003
0.058591999 0.12833001 0.071736999
0.058782 0.12886 0.070271999
0.061855 0.13097 0.072347
0.063247003 0.13264 0.071872003
0.052556001 0.13112 0.066574
0.053367998 0.13328999 0.066413999
0.061742 0.13357 0.071171999
0.063638002 0.13291 0.072281003
0.064865999 0.1338 0.071966998
0.063352004 0.13421001 0.072861001
0.053952001 0.13773 0.064648002
0.071583003 0.13644999 0.076284997
0.071427003 0.13564999 0.075317003
0.066060998 0.13846 0.070739001
0.054076999 0.14007001 0.064521998
0.072903998 0.1383 0.075162001
0.072016999 0.13861001 0.075066
0.067599997 0.14155 0.071004003
0.074127004 0.14149 0.074986003
0.054776002 0.14275999 0.063391
0.055769 0.14409 0.063178003
0.068088003 0.14295 0.070460998
0.073229 0.14391001 0.073861003
0.07299 0.14387999 0.073553003
0.070196003 0.14522 0.071089
0.069828004 0.14778 0.070524
0.074181996 0.14788 0.071319997
0.071163997 0.14787 0.070909001
0.072471 0.14917 0.070721
0.060263 0.15085 0.062585004
0.069816999 0.15148 0.067800999
0.069572002 0.15243 0.067603
0.065353997 0.15443 0.065127
0.068237998 0.15256 0.066019997
0.029580001 0.062829003 0.082373999
0.020027 0.067126997 0.075268
0.019433999 0.067611001 0.07485
0.019764001 0.068150997 0.074697003
0.034104999 0.067189999 0.083245002
0.046456002 0.066290997 0.091335997
0.045272 0.066311002 0.089896999
0.036297999 0.067887999 0.083630003
0.044643998 0.069025002 0.089263998
0.019521 0.070132002 0.072493002
0.037289001 0.069702998 0.084232002
0.038490999 0.069238998 0.084719002
0.062515996 0.067107998 0.099150002
0.01866 0.071910001 0.071501002
0.017027 0.072446004 0.071200997
0.018754 0.079558 0.069201
0.066601999 0.076081999 0.097820997
0.025705 0.083406001 0.070874996
0.023731001 0.087944001 0.068131998
0.036208998 0.087205999 0.074506998
0.034226999 0.096562997 0.070683002
0.056557 0.094975002 0.084449001
0.041762002 0.096523002 0.074890003
0.044103 0.097167 0.077471003
0.036100999 0.09742 0.070955001
0.061510999 0.095477 0.086488001
0.061021999 0.095661998 0.087318003
0.056081999 0.099340998 0.082984999
0.051291 0.10131 0.078394003
0.054140002 0.1023 0.081018999
0.051240999 0.10394 0.077174
0.054441001 0.10393 0.079769
0.053870998 0.10511 0.078910999
0.052932002 0.10488 0.078722
0.057122 0.11213 0.077274002
0.056090001 0.11206 0.075839996
0.056846 0.11333 0.077128001
0.056329999 0.11354 0.075839996
