# .PCD v0.7 - Point Cloud Data file format
VERSION 0.7
FIELDS x y z
SIZE 4 4 4
TYPE F F F
COUNT 1 1 1
WIDTH 1514
HEIGHT 1
VIEWPOINT 0 0 0 1 0 0 0
POINTS 1514
DATA ascii
0.033216 0.071730003 0.12695
-0.036951002 0.029097 0.15053
-0.035553999 0.028751001 0.14973
-0.011724 0.044475999 0.14294
-0.01071 0.045120001 0.14192
0.032694001 0.072204001 0.12728
0.057457 0.085529998 0.12081
0.057638999 0.086967997 0.11983
-0.012723 0.043457001 0.14191
-0.012527 0.043405998 0.14314
-0.0099488003 0.045417 0.14214
-0.013142 0.042838 0.14471
0.0045739999 0.053861 0.13734999
0.0046200999 0.053498998 0.13666999
-0.0093583995 0.045802001 0.14285
-0.0097687999 0.046404 0.14277001
0.032892998 0.071889997 0.12693
0.058033001 0.087429002 0.12004
-0.035812002 0.02978 0.15106
0.0046616001 0.054761 0.1382
-0.015105 0.042358 0.14607
-0.014433 0.043602999 0.14419
-0.0087738 0.046335999 0.14309999
-0.0085632997 0.046493001 0.14257
0.032868002 0.071514003 0.1296
0.058210999 0.087479003 0.12164
-0.01455 0.041933 0.14643
-0.013712 0.041425999 0.14566
-0.0080059003 0.047635999 0.14353
-0.010109 0.045157999 0.14289001
-0.0073173 0.046546001 0.14442
-0.0087425997 0.046007 0.14444
-0.0082630999 0.045272999 0.14512999
0.0050308001 0.054809 0.13891
0.0056834002 0.054710001 0.13959
0.057613999 0.086877003 0.12076
-0.037147999 0.028353 0.15423
-0.015822001 0.042001002 0.14703
-0.0088900998 0.045754999 0.14481001
0.033741001 0.071856 0.13064
-0.015148 0.041721001 0.14745
0.058219001 0.086439997 0.12214
-0.036617 0.028299 0.15435
0.033532001 0.072134003 0.13102999
-0.015954999 0.040906999 0.14915
-0.0085767005 0.046716001 0.14595
-0.0076807002 0.047017001 0.14623
0.0065557999 0.055635002 0.14056
0.0074264999 0.055125002 0.13964
0.059292 0.087188996 0.1224
-0.015975 0.041687999 0.14892
0.059324998 0.087467998 0.12463
-0.037241999 0.027927 0.15609001
-0.0072625 0.046893999 0.1464
-0.037769001 0.028829999 0.15683
-0.0064889998 0.047897 0.14596
0.059663001 0.088108003 0.12393
-0.037397999 0.028259 0.15809999
-0.015759001 0.040702 0.15096
-0.0077022999 0.046700001 0.14738999
0.0073493998 0.056474999 0.14291
0.0075311 0.057641 0.14228
-0.037785999 0.027977001 0.15837
-0.016971 0.040881 0.15178999
-0.0068186 0.047019999 0.14837
0.0089493003 0.056614999 0.14195
0.010907 0.058400001 0.14308999
0.010232 0.058598001 0.14277001
-0.0079806997 0.046108998 0.14792
-0.0093804998 0.046634 0.14764
-0.0082083996 0.046656001 0.14844
0.01201 0.058332998 0.14286
-0.038355 0.027613999 0.15882
-0.037450999 0.028314 0.15864
-0.018464001 0.039992001 0.15208
-0.017049 0.039870001 0.15211
-0.0063812002 0.047793001 0.14850999
0.034446001 0.071811996 0.13669001
0.034605 0.072329 0.13702001
-0.037827998 0.027140001 0.15986
-0.016890001 0.039978001 0.15432
0.012146 0.059326001 0.14305
0.010715 0.058789 0.14342999
-0.0065378998 0.046654001 0.15074
-0.017694 0.040070999 0.15479
-0.0073858001 0.047412001 0.15042999
-0.0059647998 0.047366001 0.15071
-0.0047729001 0.048241001 0.15087
0.012894 0.059349 0.14459001
0.01248 0.060072001 0.1445
0.013201 0.059037 0.14495
0.035057001 0.071433999 0.13708
0.060424 0.087266997 0.12985
-0.038197 0.028310999 0.16224
-0.037282001 0.027024999 0.16223
-0.0053754998 0.047490001 0.15148
-0.0066673998 0.046452999 0.15221
-0.0053794999 0.048889 0.15076999
0.034674 0.072419003 0.13878
0.01461 0.059195001 0.14439
0.014582 0.059958 0.14463
-0.0048997998 0.047525 0.1532
0.035601001 0.073856004 0.13944
-0.0045037 0.049290001 0.15205
-0.037928 0.027028 0.16306999
-0.037772 0.028115001 0.16327
-0.017779 0.039271999 0.15676001
-0.0046780002 0.048361 0.15217
-0.019602001 0.038984999 0.15905
-0.019277999 0.038803 0.15677001
-0.0025826001 0.049876999 0.15345
-0.0042937999 0.048335001 0.15346999
-0.020113001 0.038709 0.15746
-0.0033952999 0.049132001 0.15349001
0.015017 0.059835002 0.14714
0.016164999 0.061432999 0.14598
-0.020567 0.039179001 0.15931
0.035625 0.072189003 0.14071
-0.0035784999 0.049842 0.1541
-0.0039345999 0.047393002 0.15478
-0.0028704 0.048776001 0.15493
-0.0019471 0.049011 0.15353
0.058706 0.086237997 0.1348
-0.036910001 0.027256001 0.16565
-0.022317 0.037160002 0.16142
-0.019329 0.037818 0.16046
-0.037477002 0.028077999 0.16667999
-0.036472999 0.027179001 0.16727
-0.021493001 0.037338998 0.16238999
-0.021640001 0.037565999 0.16128001
0.017578 0.061700001 0.14851999
0.038107999 0.073275 0.14207
0.058566999 0.087971002 0.13526
0.059597999 0.087084003 0.13504
0.017174 0.061310999 0.14798
0.059014 0.087586001 0.13523
-0.0012858 0.050453 0.15642001
-0.0016064 0.049197 0.15539999
-0.022069 0.037218001 0.16339
-0.022221999 0.036775999 0.16247
-0.023155 0.037027001 0.1626
0.019572999 0.063555002 0.14951999
0.019453 0.062208999 0.14901
0.036334001 0.073517002 0.14248
-0.022329999 0.036605 0.16373999
0.058618002 0.086291 0.13773
-0.024289001 0.036235001 0.16441
-0.00031514 0.051504001 0.15661
-0.036159001 0.027463 0.16824
-0.036198001 0.028615 0.16796
-0.023823 0.035023998 0.1654
0.019269999 0.062936001 0.14918
-0.024452001 0.034708001 0.16574
0.058254 0.087242 0.13833
-0.034552 0.029283 0.17071
-0.034194 0.029205 0.17061
-0.025436001 0.034536 0.16682
0.039108001 0.074879996 0.14587
0.039064001 0.074125998 0.14505
0.0014438001 0.051275998 0.15815
-0.033723999 0.029083 0.17037
-0.034209002 0.029431 0.17054
0.0017619 0.052023999 0.15936001
0.021578999 0.064397 0.15167999
0.039411999 0.075026996 0.14597
0.059581 0.087957002 0.13989
0.058963999 0.087071002 0.13852
-0.032703999 0.030413 0.17066
-0.031596001 0.030173 0.17093
-0.027592 0.033312999 0.16993999
-0.031192999 0.030797999 0.17148
-0.031249 0.032072999 0.17145
0.0027393 0.051833 0.16018
0.040805999 0.075604998 0.14775001
-0.029623 0.032543 0.17059
0.0036357001 0.052386001 0.16039
0.022616001 0.065204002 0.15411
0.061172001 0.088705003 0.13992999
0.0037338999 0.053070001 0.16113
0.022615001 0.064755999 0.15334
0.041044001 0.076545 0.14762001
0.0052215001 0.053640001 0.16133
0.042438 0.076753996 0.14933001
0.061561 0.089424998 0.14088
0.0060955002 0.052972998 0.16181
0.006058 0.054265998 0.1621
0.0054539 0.053699002 0.16139001
0.063009001 0.089743003 0.14283
0.062784001 0.089557998 0.1435
0.043742001 0.077147 0.14961
0.0066876002 0.054435 0.16266
0.042957999 0.077391997 0.15015
0.063472003 0.089220002 0.14317
0.044155002 0.077638 0.15078001
0.026099 0.066881001 0.15689
0.064874999 0.090061001 0.14407
0.026571 0.067074001 0.1576
0.04532 0.078253001 0.15135001
0.0068926001 0.055311002 0.16497
0.0065678 0.053893998 0.164
0.064880997 0.090608999 0.14606
0.0077332002 0.053902 0.16512001
0.0080513004 0.054687001 0.16482
0.04462 0.078253001 0.15298
0.044891998 0.079222001 0.15401
0.065917999 0.091122001 0.14477
0.027733 0.066900998 0.15803
0.0078672003 0.055714 0.16463
0.027875001 0.067233004 0.15898
0.066292003 0.091793001 0.14599
0.0080768 0.055147 0.16654
0.0081497002 0.054687999 0.16508999
0.066540003 0.090686001 0.14704999
0.027999001 0.067702003 0.16033
0.066451997 0.092157997 0.14681
0.066811003 0.091977999 0.14859
0.069108002 0.092058003 0.14725
0.0093088998 0.056045 0.16779
0.0085576 0.056635998 0.16700999
0.028896 0.068342999 0.16043
0.029323 0.067924999 0.16087
0.010004 0.056915 0.16824
0.028798999 0.069427997 0.16215999
0.049201999 0.080976002 0.15611
0.067542002 0.092272997 0.14938
0.067835003 0.092997998 0.14948
0.011583 0.056231 0.17027999
0.0099961003 0.055321999 0.16953
0.011184 0.057720002 0.16956
0.011426 0.056641001 0.16989
0.01172 0.058058999 0.17106999
0.070712999 0.093025997 0.15072
0.051304001 0.08151 0.15726
0.051440001 0.081850998 0.15917
0.031452999 0.069692001 0.16445
0.031819999 0.070331998 0.16387001
0.070643999 0.093866996 0.15161
0.012618 0.057500999 0.17157
0.012738 0.057229001 0.17284
0.070742004 0.095030002 0.15251
0.01338 0.057533 0.17162
0.033098999 0.070951998 0.16539
0.071952 0.094485 0.15208
0.014267 0.058017999 0.17317
0.072417997 0.095319003 0.15338001
0.014759 0.058006998 0.17306
0.033624001 0.071291998 0.16655
0.013924 0.058577001 0.17383
0.033457 0.069477998 0.16752
0.072733 0.095105998 0.15358999
0.072080001 0.094723001 0.15333
0.054398999 0.083237998 0.16066
0.014452 0.058945 0.17426001
0.054444999 0.084251001 0.16075
0.073077001 0.095504999 0.15607999
0.035078999 0.071165003 0.16852
0.056288 0.082657002 0.16161001
0.073523998 0.095039003 0.15530001
0.056522999 0.083769001 0.16250999
0.073550999 0.096423998 0.15568
0.014998 0.059262998 0.17495
0.015181 0.060798001 0.17666
0.015108 0.058913 0.17648
0.056648999 0.084454998 0.16349
0.074235998 0.096514001 0.15787999
0.015848 0.059383001 0.17839
0.057128001 0.084023997 0.16422001
0.016821999 0.059503 0.17789
0.057576001 0.084475003 0.16548
0.057746999 0.085096002 0.16590001
0.057473999 0.085465997 0.16629
0.057466999 0.086078003 0.16646001
0.016843 0.060694002 0.18027
0.038778 0.073371001 0.17261
0.058006 0.085638002 0.16700999
0.076476 0.096501999 0.16047999
0.077035002 0.096766002 0.16126999
0.018999999 0.061872002 0.18043
0.039677002 0.072547004 0.17238
0.058405999 0.085303001 0.16896001
0.019932 0.060791001 0.18216
0.040855002 0.073540002 0.17434999
0.059517 0.086112998 0.16867
0.019619999 0.0614 0.18131
0.076996997 0.098186001 0.16413
0.041200999 0.074341998 0.17439
0.041157 0.074781001 0.17580999
0.058773998 0.085371003 0.17012
0.077191003 0.096809998 0.16469
0.020099999 0.062510997 0.18305001
0.043269001 0.076061003 0.17470001
0.043155 0.076475002 0.1768
0.059921999 0.084928997 0.17224
0.078114003 0.097497001 0.16639
0.058375001 0.085704997 0.17309999
0.077370003 0.098048002 0.16669001
0.059831001 0.085879996 0.17219
0.045295 0.077613004 0.17737
0.078413002 0.097576 0.16711
0.022972001 0.063395999 0.18634
0.02334 0.062774003 0.18649
0.046372 0.077999003 0.17754
0.048124 0.078676999 0.1786
0.048682999 0.078584999 0.17967001
0.059299 0.084959 0.17664
0.048737999 0.078447998 0.17809001
0.050779 0.079775997 0.17911001
0.058198001 0.084753998 0.17809001
0.079747997 0.098949999 0.17019001
0.025101 0.063547 0.18786
0.058469001 0.085323997 0.17799
0.058706999 0.084714003 0.17869
0.051704999 0.082061999 0.18051
0.052678 0.081514001 0.18043999
0.052995 0.081284001 0.18097
0.053341001 0.080661997 0.17976999
0.052754 0.081820004 0.18043999
0.079861999 0.097732998 0.17314
0.026859 0.065001003 0.19103
0.025264001 0.064686 0.19022
0.079746 0.098617002 0.17412999
0.028001999 0.065472998 0.19220001
0.027046001 0.064882003 0.19237
0.027642 0.066115998 0.19336
0.028577 0.065858997 0.19272999
0.028837999 0.066834003 0.19313
0.080066003 0.097988002 0.17686
0.080271997 0.098596998 0.17614
0.029526001 0.067629002 0.19451
0.029083 0.067074001 0.19468001
0.079268001 0.097638004 0.17776
0.080169 0.097491004 0.17891
0.032143001 0.067741998 0.19589999
0.080486998 0.098312996 0.17941999
0.079398997 0.096619003 0.18096
0.078823999 0.097240001 0.1812
0.0061806999 0.051594999 0.20611
0.0047455002 0.051421002 0.20553
0.0041207001 0.051720001 0.20561001
0.031470001 0.068856001 0.19575
0.078768 0.097903997 0.18142
0.0024375999 0.049408998 0.20629001
0.0017906 0.050115 0.20739
0.0033495 0.050551999 0.20822001
0.0031343 0.050248999 0.20792
0.033502001 0.069884002 0.19605
0.0016892001 0.050133001 0.20896
0.0026803999 0.050377 0.20833001
0.0064069 0.052928999 0.20768
0.0052922 0.052281 0.20748
0.0080739995 0.053183999 0.20728
0.0067817001 0.052347001 0.2067
0.0016895999 0.049399 0.20840999
0.0073009999 0.052944001 0.20728999
0.0068917 0.053158 0.20653
0.080017 0.097344004 0.18327001
0.078578003 0.097498998 0.18382999
2.6537e-05 0.048277002 0.20905
0.034653001 0.06983 0.19902
0.079281002 0.097324997 0.18415999
0.00068575999 0.049233001 0.20976999
-0.00019049 0.048121002 0.2105
0.0068204999 0.054439999 0.20929
-0.00019594 0.047800001 0.21208
7.7997996e-05 0.047922 0.2129
0.079611003 0.096726 0.18637
0.078745 0.096849002 0.18602
-0.0018128 0.047292002 0.21283001
0.0082946997 0.054170001 0.20809001
0.0090808002 0.054251 0.20982
0.036657002 0.072159998 0.20077001
0.0082115 0.053567 0.20805
0.076100998 0.096662 0.18754999
0.077858001 0.096396998 0.18844
0.0090696998 0.053555001 0.21081001
0.0092342002 0.054616999 0.2096
0.0093115997 0.054582998 0.21024001
0.010247 0.054001998 0.21089999
-0.0020749001 0.047254 0.215
-0.0032766 0.046645999 0.21435
-0.0028188 0.046491999 0.21366
0.0096775005 0.055464 0.21053
0.036982 0.072132997 0.19999
0.077757001 0.095461003 0.18827
0.077846996 0.095977001 0.18955
-0.0041268999 0.046365999 0.21613
-0.0042109 0.046383999 0.21551
0.010831 0.055987999 0.21232
0.01041 0.054921001 0.21159001
0.03915 0.072494 0.20124
0.077023998 0.096738003 0.18890999
0.077809997 0.096685998 0.18922
0.039558001 0.072442003 0.20272
-0.0046231998 0.044679999 0.21696
-0.0040839999 0.045495 0.21607
0.012531 0.055644002 0.21179
0.010841 0.055720001 0.21195
0.039441001 0.072729997 0.20253
0.039900001 0.073556997 0.20281
0.040649999 0.073550999 0.20237
0.076489002 0.095742002 0.19021
-0.0039980998 0.044856999 0.21715
-0.0045162002 0.046705998 0.21739
0.040523 0.074453004 0.20294
0.076008998 0.095577002 0.19238
0.074727997 0.094208002 0.19209
-0.0034986001 0.045894999 0.21856999
0.012754 0.055415999 0.21381
0.074436001 0.094999 0.19255
0.043063 0.074966997 0.20341
0.012117 0.056345001 0.21367
0.074377 0.095475003 0.19245
-0.0037586 0.046877 0.21911
-0.0037507 0.045857999 0.22032
0.075681999 0.094489999 0.19327
-0.0026852 0.046615001 0.22053
0.074414998 0.094168 0.19497
0.073259003 0.093979999 0.19516
-0.0030654001 0.047031 0.22017001
0.045983002 0.076661997 0.20487
0.073545001 0.093226999 0.19606
0.073675998 0.093827002 0.19492
0.014343 0.055932999 0.21603
-0.0034729999 0.044509999 0.22058
-0.0031493001 0.046794001 0.22114
0.047295 0.077462003 0.2049
0.048280001 0.076638997 0.20497
0.047625002 0.077243 0.20575
0.048864 0.077568002 0.20579
0.048425 0.079343997 0.20567
-0.0027993999 0.047456 0.22226
0.013789 0.057278998 0.21659
0.072494999 0.092196003 0.19693001
0.049687002 0.078686997 0.20588
0.071680002 0.092978001 0.19845
0.072232001 0.092355996 0.19751
0.014647 0.057154 0.21743999
0.015536 0.056944001 0.2177
0.070289999 0.091022998 0.20017999
0.051757 0.079217002 0.20615999
0.050232001 0.079255 0.20614
0.052324001 0.080936998 0.20636
0.052179001 0.080062002 0.20588
-0.0028381001 0.045556001 0.22356001
-0.0025402 0.04699 0.22541
0.015252 0.057078999 0.21845999
0.052939001 0.080178 0.20637999
0.052875999 0.080077998 0.20649
0.053254999 0.078599997 0.20669
0.054030001 0.080236003 0.20634
0.055264 0.080788001 0.20649
0.060010999 0.084528998 0.20525999
0.064577997 0.087796003 0.20175
0.065168001 0.087998003 0.2031
0.058550999 0.084343001 0.20415001
0.062599003 0.085996002 0.20452
-0.0015187 0.047680002 0.2269
-0.0010748 0.047897998 0.22755
0.015251 0.058281001 0.22098
0.00018403999 0.047139999 0.22889
-0.00091344002 0.047389999 0.22672001
-0.00043283001 0.047343001 0.22943
0.016007001 0.057496 0.22508
-0.00098656002 0.046826001 0.22961
0.015830001 0.057581998 0.22538
-0.0035655999 0.045187999 0.2318
-0.0034791999 0.044679999 0.23195
-0.0037467 0.045511 0.23301999
-0.0051791002 0.043653 0.23337001
-0.0050988998 0.045469999 0.23348001
0.016059 0.056295 0.22729
0.016156999 0.056878999 0.22541
-0.0055192001 0.044674002 0.23348001
-0.0056059002 0.044404 0.23491
-0.0054712002 0.044881999 0.23532
0.015027 0.057879001 0.22871
-0.0044673998 0.044624999 0.23588
-0.0036319999 0.044957001 0.23669
0.015342 0.058630001 0.23034
-0.0043096002 0.046250999 0.23810001
0.015683001 0.056676 0.23142999
0.015607 0.057553001 0.2326
-0.0057418998 0.044527002 0.23827
-0.0046472 0.044679999 0.23763999
-0.0043739001 0.044624999 0.23806
-0.0044127 0.045915 0.23892
0.016177 0.055603001 0.23214
-0.0028891 0.045517001 0.23955999
-0.0028744999 0.045899 0.23943
-0.0016316 0.046479002 0.24146
-0.0020405999 0.046041001 0.24149001
0.015058 0.055721 0.23586001
0.014468 0.055573002 0.23608001
-0.0018664 0.046503998 0.24152
-0.0029213999 0.044673 0.24236999
0.013312 0.055404 0.23811001
-0.0027474 0.045434002 0.24336
0.012105 0.054857001 0.24038
-0.001011 0.046797998 0.24533001
-0.0012807 0.04555 0.24563
0.0097692003 0.052708 0.24297
0.010247 0.053078 0.24211
0.0098924004 0.053091001 0.24126001
0.010986 0.053181 0.24033
0.0088010002 0.052377 0.24322
0.0088024996 0.051573001 0.24293999
0.0082868999 0.052255999 0.24417
0.0070032999 0.052088 0.24545
0.0012894 0.046781 0.24679001
0.0090669002 0.051107999 0.24613
0.0026533001 0.048971001 0.24702001
0.0038626001 0.0484 0.24747001
0.0084477998 0.051871002 0.24635001
0.0082457 0.051658999 0.24568
0.0060671 0.050579 0.24774
0.0060353 0.050544001 0.24803001
0.0070715998 0.052455999 0.24659
0.034070998 0.067504004 0.24504
0.033798002 0.067460999 0.24594
0.033797 0.067465 0.24563
0.036215998 0.068512999 0.24516
0.033438999 0.067284003 0.24708
0.03229 0.067355998 0.24582
0.032806002 0.066597998 0.24688999
0.035459001 0.068144999 0.24496
0.036129002 0.070008002 0.24558
0.035803001 0.068991996 0.24526
0.037406001 0.069311 0.24525
0.038063999 0.069912001 0.24471
0.033388998 0.067374997 0.24728
0.038888998 0.070635997 0.24528
0.038660001 0.070211001 0.2458
0.032173 0.067534998 0.24801999
0.032489002 0.066877 0.24772
0.033284999 0.066453002 0.24839
0.034561999 0.067088999 0.2485
0.040302001 0.070637003 0.24524
0.041416001 0.071498998 0.24631999
0.035333 0.068489 0.24924
0.042142 0.071607001 0.24665999
0.035326999 0.067961 0.24890999
0.042095002 0.071857996 0.24680001
0.042543001 0.073758997 0.24715
0.036777001 0.068769 0.24968
0.043131001 0.072894998 0.24614
0.037602 0.069558002 0.25011
0.0436 0.073090002 0.24778999
0.038183998 0.069675997 0.25073001
0.038272999 0.070246004 0.24944
0.044714 0.074256003 0.24875
0.039503999 0.070678003 0.24976
0.044773001 0.074221 0.2493
0.039960999 0.071125001 0.25071999
0.043917999 0.074731 0.24905001
0.040155999 0.070197001 0.25062999
0.045586001 0.074299 0.25025001
0.041928999 0.071857996 0.25084001
0.043005001 0.071503997 0.25069001
0.045618001 0.074671999 0.25073999
0.042121001 0.072417997 0.25082999
0.043327998 0.073053002 0.25113001
0.044836 0.073531002 0.25173
0.045433 0.072894 0.25108999
0.045014001 0.074337997 0.25134999
-0.018780001 0.038856 0.12571
-0.017316001 0.039282002 0.12449
-0.017091 0.040984999 0.12547
-0.012129 0.044057999 0.12321
-0.021961 0.038137998 0.12682
-0.011678 0.044365998 0.12386
-0.013045 0.043341 0.124
-0.022174999 0.038612001 0.12722
-0.010107 0.044881999 0.12454
-0.025584999 0.035436999 0.13031
-0.025637001 0.035415001 0.13067
-0.026791001 0.035397999 0.13194001
-0.026231 0.035262 0.13211
-0.027377 0.035096999 0.13328999
-0.0070174001 0.046599999 0.1265
-0.0524 0.020595999 0.14094
-0.051437002 0.019617001 0.14059
-0.050358001 0.019359 0.14094
-0.030049 0.033243999 0.13462
-0.029084999 0.033344999 0.13402
-0.054692 0.019075001 0.14349
-0.031060999 0.032439001 0.13602
-0.056545999 0.016723 0.14403
-0.045410998 0.023336999 0.1407
-0.031787999 0.031144001 0.13655999
-0.0054255999 0.047527999 0.12791
-0.056706998 0.016938999 0.14494
-0.045348998 0.023836 0.14031
-0.0061157001 0.046959002 0.12774
0.058095001 0.088054001 0.10698
0.059271999 0.087298997 0.10652
-0.043802001 0.023600001 0.14052001
-0.042941999 0.023518 0.14026
0.059886999 0.088597 0.10618
-0.035434999 0.029475 0.13807
0.054319002 0.084648997 0.11087
-0.040814001 0.025761999 0.14162999
-0.035358999 0.028858 0.13981999
-0.036022998 0.028492 0.13970999
0.053918 0.083912998 0.11003
-0.055273999 0.016807999 0.14586
-0.040376 0.026301 0.14137
-0.038885001 0.026742 0.14168
-0.038417999 0.029454 0.14048
-0.055319 0.017491 0.14677
-0.039836001 0.026231 0.14074001
-0.0029963001 0.049415998 0.12975
0.060849 0.088574 0.10842
0.036515001 0.074631996 0.1189
0.038226001 0.073907003 0.11732
0.036378998 0.074846998 0.11844
0.038463 0.075171001 0.11551
0.039445002 0.074404001 0.11664
0.050363999 0.082231998 0.114
-0.00049428002 0.051348999 0.13079999
0.039946001 0.075717002 0.1171
0.045139 0.079030998 0.11578
0.036626998 0.072881997 0.11879
0.036832999 0.072715998 0.11868
0.046661999 0.079089999 0.11594
0.046225999 0.080407999 0.11606
0.062047001 0.088800997 0.11134
0.060591999 0.089392997 0.11048
0.061563 0.088794 0.11195
0.04645 0.080558002 0.11534
0.035429999 0.072164997 0.11934
0.034566998 0.072507001 0.12024
0.060828 0.088522002 0.11288
0.034658998 0.073647998 0.12207
-0.052684002 0.017756 0.15059
0.034054998 0.073030002 0.12364
0.059707001 0.087686002 0.11633
0.059627999 0.087582998 0.11527
-0.047044002 0.021521 0.15121999
-0.045704 0.022051999 0.15131
0.0037416001 0.053699002 0.13476001
0.033176001 0.070887998 0.12462
0.032896999 0.071350001 0.12631001
-0.012026 0.043637 0.14342
-0.010786 0.044544 0.14279
-0.01372 0.042759001 0.14453
0.032297999 0.071065001 0.1293
-0.010765 0.04439 0.14356001
0.0069533 0.054781001 0.13787
-0.010815 0.044252001 0.14458001
0.058407001 0.088297002 0.12066
-0.015900999 0.041457001 0.14672001
0.060410999 0.087633997 0.12204
0.0072854999 0.054602999 0.13838001
-0.0098491004 0.044367 0.14523
-0.0089734001 0.046512 0.14571001
-0.036899 0.028155999 0.15512
-0.0099926004 0.044998001 0.14801
-0.011142 0.044410001 0.14702
0.0083539002 0.056612998 0.13948999
0.0078825997 0.056058001 0.14050999
-0.036821 0.026608 0.15507001
-0.038141999 0.027186001 0.15739
-0.0098994998 0.045433 0.14659999
-0.011217 0.044620998 0.14709
-0.0082860999 0.047178999 0.14628001
0.0086719003 0.055631999 0.14022
0.033636998 0.071996003 0.13333
-0.037271 0.028602 0.15642001
0.0094469003 0.056223001 0.14111
-0.0093844999 0.045628 0.14753
-0.016821999 0.040484 0.15082
-0.0088210003 0.046241 0.14822
0.010945 0.057874002 0.14102
0.032983001 0.072355002 0.13575
-0.0079140998 0.045883 0.14904
0.033027999 0.072453998 0.13382
0.032953002 0.071254998 0.1345
-0.0090659996 0.045651 0.15075999
-0.0075475001 0.046781 0.14968
0.061009999 0.087780997 0.12739
-0.0080746999 0.046133999 0.15147001
-0.039230999 0.027657 0.16075
0.013437 0.059978999 0.14376999
-0.0076532001 0.045472 0.15246999
-0.0062223002 0.045662001 0.15192001
-0.0085530998 0.045161001 0.15162
-0.0089111999 0.045954999 0.15137
-0.017202999 0.038718998 0.15601
0.059792001 0.087653004 0.13025001
-0.0073448 0.047230002 0.15297
0.034666002 0.071815997 0.13822
-0.0064769001 0.046535999 0.15425999
-0.019317999 0.039136998 0.15707
-0.0046950001 0.047896001 0.15366
-0.0054815002 0.046992 0.15369999
0.014664 0.060284998 0.14599
0.059006002 0.085951999 0.13309
-0.018650001 0.037592001 0.15798999
-0.037664 0.026998 0.16371
-0.037101001 0.027419001 0.16503
-0.004948 0.047800001 0.15336999
-0.020803001 0.038277999 0.15974
-0.018157 0.037112001 0.15998
-0.018253 0.037230998 0.15869001
-0.020003 0.037287999 0.15945999
-0.0042619002 0.049105 0.15474001
-0.00097206002 0.049199998 0.15595999
-0.00097489002 0.050381999 0.15659
0.020257 0.063162997 0.15108
0.00098206999 0.049897999 0.15836
0.0019304 0.050216001 0.15851
0.001668 0.050562002 0.15862
-0.025931999 0.034795001 0.16753
0.022048 0.062139001 0.15132
0.022474 0.063476004 0.15204
-0.032873999 0.030510001 0.17088
0.022899 0.064502001 0.15289
-0.032106001 0.030410999 0.17122
0.0026714001 0.052237999 0.16091999
-0.027968001 0.032003 0.17069
-0.028684 0.03176 0.17139
-0.028085999 0.032005001 0.17042001
0.0038395999 0.052785002 0.16136999
0.0048428001 0.053654999 0.16188
0.040778998 0.075213999 0.14974999
0.062508002 0.088358998 0.14217
0.063316002 0.089835003 0.14218
0.0054910998 0.053392999 0.16258
0.025390999 0.065738998 0.15576001
0.063197002 0.088757001 0.14245
0.043136001 0.076673999 0.15133999
0.0044638999 0.053718001 0.1627
0.026239 0.066454001 0.15508001
0.025734 0.066119999 0.1566
0.026644001 0.065415002 0.15667
0.043336 0.076543003 0.15245999
0.065737002 0.090225004 0.14504001
0.045310002 0.077187002 0.15219
0.065903001 0.091038004 0.14493001
0.027408 0.067689002 0.15996
0.045965999 0.077748999 0.15312999
0.067064002 0.091944002 0.14684001
0.049423002 0.080395997 0.15633
0.01051 0.055897001 0.17066
0.01009 0.056432001 0.16915999
0.010343 0.055505 0.16987
0.010417 0.056070998 0.17021
0.010852 0.055286001 0.17072999
0.032161001 0.069176003 0.16463999
0.070974 0.093661003 0.15132
0.011955 0.057982001 0.17174999
0.053263001 0.081765004 0.15883
0.034619998 0.071061 0.16698
0.034681 0.069949001 0.16788
0.033698998 0.069619998 0.16606
0.013682 0.058247 0.17317
0.01499 0.058511999 0.17409
0.054942999 0.082085997 0.16209
0.072919004 0.095389001 0.15394001
0.014577 0.058364999 0.17557999
0.015265 0.059191 0.17704999
0.035721 0.071294002 0.16881999
0.074626997 0.094940998 0.15628
0.075199001 0.095123999 0.15662999
0.074809998 0.09595 0.15735
0.016434999 0.059367001 0.17852999
0.016754 0.058515999 0.17642
0.037407 0.072865002 0.16996001
0.05751 0.083857998 0.16548
0.037896 0.072838999 0.1717
0.017304 0.060522001 0.17975999
0.017305 0.059587002 0.17966001
0.018704001 0.060376 0.17947
0.039585002 0.073884003 0.17224
0.018440001 0.060389999 0.18005
0.019069999 0.061712999 0.18027
0.077175997 0.096258998 0.15985
0.075943999 0.096430004 0.16083001
0.041370999 0.074957997 0.17419
0.019603999 0.061586998 0.18268
0.019546 0.061466999 0.18255
0.077555001 0.097824998 0.1638
0.059039999 0.085601002 0.17183
0.079577997 0.097000003 0.16500001
0.079244003 0.096518002 0.16410001
0.043981001 0.076613002 0.17546999
0.078739002 0.097727001 0.16422001
0.021272 0.061728999 0.18456
0.058363002 0.085455999 0.17156
0.044840001 0.076444 0.17639001
0.058839999 0.085739002 0.17308
0.059115 0.08501 0.17377999
0.079092003 0.097948998 0.16898
0.079581 0.098223001 0.16763
0.078868002 0.098361999 0.16857
0.080334 0.098612003 0.16917001
0.079346001 0.098630004 0.16806
0.02385 0.064437002 0.18779001
0.048921 0.077973001 0.17795999
0.023815 0.062660001 0.18846001
0.058543999 0.084055997 0.17511
0.051095001 0.080876999 0.18015
0.080642998 0.098194003 0.17038
0.052615002 0.082062997 0.18019
0.054458 0.081520997 0.17928
0.058722001 0.085720003 0.17772999
0.056141999 0.082249001 0.17968
0.054951999 0.082473002 0.17846
0.081506997 0.097948 0.17389999
0.080401003 0.098521002 0.17222001
0.081487998 0.098176003 0.17462
0.079985 0.098768003 0.17483
0.028836001 0.066303 0.19314
0.028974 0.066014998 0.19436
0.028928 0.067014001 0.19328
0.080118999 0.098259002 0.17701
0.0039232001 0.051318001 0.2036
0.0024492 0.049865 0.20364
0.0034266 0.050297 0.20432
0.0036545 0.051201001 0.20466
0.0046958998 0.051412001 0.20483001
0.0052501 0.052487999 0.20494001
0.0028160999 0.051141001 0.20603999
0.0044807 0.051043 0.20466
0.0057971999 0.051739998 0.20388
0.0066877999 0.052368 0.20407
0.0073914998 0.052200001 0.20479
0.080274001 0.098053999 0.17997999
0.0075808 0.052956 0.20539001
0.0010587 0.048907999 0.20754001
0.032274 0.068033002 0.19787
0.0077344999 0.053275 0.20627999
0.0074756001 0.053668998 0.20675001
0.0014504 0.049290001 0.2084
0.032887999 0.068723999 0.19762
0.0099558001 0.054187998 0.20703
0.0097284 0.054662999 0.20774999
0.033544999 0.069338001 0.19924
0.077982999 0.096749 0.18537
0.0088563999 0.054216001 0.2077
-0.00077263999 0.047807999 0.21138
0.010882 0.053838 0.20994
0.0098465998 0.053761002 0.20917
-0.0021599999 0.047212999 0.21355
0.010728 0.054701999 0.20967001
-0.0035679 0.045990001 0.21479
-0.0040668999 0.04575 0.21641999
0.011872 0.055837002 0.21012001
-0.0059337998 0.045336999 0.21763
0.077352002 0.096818 0.19092
0.039049 0.072649002 0.20367
-0.0042262999 0.045203999 0.21872
0.012947 0.056425001 0.21252
0.012735 0.055525001 0.21233
-0.0035633999 0.045237001 0.21789999
0.042254001 0.074634001 0.20343
0.041462999 0.073844999 0.20299
0.076729998 0.094209999 0.19148999
0.077076003 0.094169997 0.19225
0.078428 0.095744997 0.19235
0.013682 0.056673001 0.21348
-0.0044072 0.045892999 0.21980999
0.075924002 0.093979999 0.19362
0.044500999 0.075000003 0.20375
0.013299 0.057032999 0.21568
0.074258998 0.093278997 0.19502001
-0.0023105999 0.04747 0.22211
-0.0038407999 0.045354001 0.22261
0.046592999 0.076283999 0.20491999
0.073211998 0.09228 0.1964
0.014487 0.056283001 0.21567
0.014565 0.057013001 0.21559
-0.0020155001 0.046976998 0.22184999
0.068729997 0.090294003 0.20142999
0.070986003 0.091701999 0.19908001
0.070441999 0.091790996 0.19837999
0.053350002 0.080004998 0.20568
0.066999003 0.089510001 0.20169
-0.0017813999 0.046691 0.22544999
-0.0035616001 0.045136999 0.22464
-0.0019769999 0.046698999 0.22656
-0.0027719999 0.046229001 0.22532
0.055904999 0.081721 0.20573001
0.056325 0.081936002 0.20774999
0.056508999 0.083476998 0.20636
0.058348998 0.082532004 0.20581
0.058217999 0.083166003 0.20608
0.064884998 0.087113 0.20399
0.064493999 0.086623996 0.20377
0.061002001 0.083948001 0.20615999
0.060074002 0.084489003 0.20445
0.061937001 0.086455002 0.2049
0.063657001 0.087082997 0.20433
-0.0030518 0.046534002 0.22736
-0.0036432 0.044661999 0.226
-0.0037566 0.045448001 0.22695
-0.0026477 0.046078 0.22586
-0.0030998001 0.045519002 0.22831
-0.0013747 0.04676 0.22646999
-0.00097694003 0.046298001 0.22767
0.016658001 0.057778999 0.22195999
-0.0033098999 0.044874001 0.22885001
-0.001892 0.045678999 0.22853
0.017111 0.056898002 0.22284999
-0.00087359 0.04685 0.22802
-0.0012279 0.047516 0.23024
0.016447 0.057597 0.22567999
-0.0060617998 0.043443002 0.23465
-0.0054000998 0.043460999 0.23469
-0.0066553 0.042725001 0.23479
0.017534001 0.056150001 0.22876
0.017157 0.056806002 0.22923
0.016721001 0.056650002 0.22814
-0.0048727002 0.043513 0.23694
-0.0026368001 0.044849999 0.24017
-0.0025559 0.045398999 0.23983
-0.0025936 0.045340002 0.24152
0.014139 0.056829002 0.23582999
0.013946 0.055413999 0.23891
0.014344 0.054343 0.23824
0.014502 0.054896001 0.2387
-0.0015074 0.045248002 0.24462999
-0.0025422 0.044199001 0.2436
0.0016184 0.048571002 0.24773
0.0078023998 0.051677998 0.24597999
0.0069388999 0.050783001 0.24653
0.034194 0.067887999 0.24459
0.033916999 0.066330001 0.24485999
0.033114001 0.065707996 0.24506
0.031884 0.066073 0.24552
0.031411 0.066036999 0.24645001
0.032081001 0.066766001 0.24591
0.033344999 0.067062996 0.24514
0.036993999 0.068728998 0.24519999
0.031369999 0.066537 0.24792001
0.035282001 0.067369998 0.24852
0.035615001 0.067974001 0.24957
0.036603998 0.066919997 0.24943
0.037404999 0.068201996 0.25055
0.045325998 0.074717999 0.25075001
0.042252999 0.072085001 0.25094
-0.01507 0.041188002 0.12393
-0.019111 0.039170001 0.12544
-0.019650999 0.038502999 0.12661
-0.016550001 0.040968001 0.1244
-0.016701 0.041522 0.1245
-0.011851 0.045136001 0.12346
-0.010624 0.045278002 0.12461
-0.022263 0.037643999 0.12729
-0.021815 0.037174001 0.12667
-0.0089905998 0.046960998 0.12555
-0.027409 0.033707 0.13212
-0.0084346998 0.044426002 0.12659
-0.027755 0.033702001 0.13294999
-0.0080490001 0.046115 0.12723
-0.051755 0.01929 0.14128
-0.050896998 0.018983001 0.14074001
-0.058233999 0.015784999 0.14342999
-0.058060002 0.014957 0.14365999
-0.057879001 0.015703 0.1441
-0.058084998 0.015489 0.14404
-0.057296999 0.016267 0.14289001
-0.056334998 0.017354 0.14277001
-0.047832001 0.020277999 0.14127
-0.046782002 0.020764001 0.14078
-0.0059088999 0.046866 0.12785999
-0.057804 0.015585 0.14490999
-0.044381 0.021605 0.13995001
-0.045329999 0.022297001 0.14041001
0.056903001 0.086926997 0.10661
0.057875998 0.086176999 0.10557
0.060366999 0.088068999 0.10577
0.059344999 0.086878002 0.10615
0.059232999 0.088082001 0.10629
-0.057004999 0.015628001 0.14458001
-0.05658 0.016133999 0.14601
0.057944 0.086378999 0.10657
0.057893999 0.087103002 0.1065
0.059512001 0.089456998 0.10711
0.060633 0.088720001 0.1057
-0.055562001 0.016929001 0.14617001
0.055215001 0.086292997 0.10797
-0.057585001 0.016233001 0.1454
-0.033397999 0.029987 0.13931
0.060426999 0.089198001 0.10702
0.061345 0.089299999 0.10745
-0.057206001 0.015539 0.14579
-0.055877998 0.016628999 0.14621
-0.040399998 0.02495 0.14026999
-0.040341001 0.025057999 0.14038999
0.060644999 0.088958003 0.10872
-0.036772002 0.028231001 0.14057
-0.037532002 0.027824 0.14019001
0.052368 0.082571 0.11187
0.052060999 0.082516 0.1131
-0.054627001 0.017783999 0.14789
-0.055201001 0.017472999 0.14760999
0.038543999 0.074308001 0.11576
0.038481001 0.073604003 0.11646
0.051263001 0.082073003 0.11337
-0.0022453 0.049258001 0.12983
-0.0017341 0.049407002 0.13078
0.038268 0.074635997 0.11802
0.039884001 0.075456001 0.11667
0.042518001 0.076396003 0.11712
0.041878 0.076701 0.1169
0.046057999 0.077795997 0.11477
0.044605002 0.078672998 0.11596
-0.0010599 0.049945001 0.1318
0.035491001 0.072424002 0.11889
0.044922002 0.079613999 0.11587
0.047350001 0.078881003 0.11523
-0.0012071 0.050236002 0.13113999
0.033661999 0.071298003 0.12061
0.061285999 0.088053003 0.11243
0.033546001 0.072051004 0.12329
0.033751 0.071621001 0.12275
0.059741002 0.086868003 0.11586
-0.050526999 0.019396 0.1524
-0.050772 0.021044999 0.15245999
-0.049043 0.020253001 0.15237001
-0.047463998 0.021633999 0.15042
-0.047766998 0.020315999 0.15148
-0.048815999 0.021087 0.15205
-0.045855999 0.022257 0.15143999
-0.04716 0.02152 0.15069
0.0051282002 0.052638002 0.13432001
0.057925001 0.088225 0.11585
-0.044610001 0.022631001 0.15033001
-0.043164 0.023186 0.15053
-0.042812999 0.025725 0.15005
-0.041030001 0.025157999 0.14926
-0.041347001 0.025939999 0.14969
0.032469999 0.070851997 0.12659
-0.038169999 0.027052 0.14888
0.057464 0.087816 0.1186
0.0043381001 0.052614 0.13623001
0.058965001 0.086831003 0.11957
-0.012145 0.043483999 0.14385
-0.011713 0.044261999 0.14294
0.057744998 0.086568996 0.12039
0.059558999 0.086940996 0.11965
0.0046763001 0.054474 0.13751
-0.035879001 0.028801 0.15209
-0.011454 0.043924998 0.14451
-0.01103 0.043875001 0.14452
0.059633002 0.086787 0.12146
-0.012996 0.043161999 0.1437
0.0069352002 0.054391 0.1393
0.0071914 0.054168999 0.1388
-0.014174 0.043116 0.14576
-0.010819 0.043501001 0.14572001
-0.010481 0.043791 0.14624999
0.033734001 0.070651002 0.12959
0.033154 0.071168996 0.13029
-0.013776 0.041448999 0.14606
0.0077744001 0.056008998 0.13867
-0.011958 0.043896999 0.14719
-0.010348 0.044461001 0.14639001
0.0079378001 0.056093 0.14023
0.010065 0.055275999 0.13959999
0.059501 0.087149002 0.12217
0.060927 0.086599 0.12344
-0.011234 0.043485999 0.14642
0.010165 0.056908999 0.141
0.010728 0.056318998 0.14031
-0.010956 0.044778001 0.14759
0.0090474999 0.057372 0.14022
-0.015686 0.039985999 0.15042
-0.011511 0.043717999 0.14811
-0.011018 0.044179 0.14985
-0.010737 0.044165 0.14832
0.010169 0.056731001 0.14184999
-0.036814999 0.027992001 0.15781
0.011751 0.057663001 0.14161
0.01254 0.058136001 0.14232001
-0.01016 0.043790001 0.15014
-0.0089566 0.044700999 0.14944001
-0.0098243998 0.044543002 0.15031999
0.013152 0.057918001 0.14229
0.012121 0.057840001 0.14139
0.035039999 0.071112998 0.13541999
-0.0085787 0.045596 0.15054999
-0.016891999 0.039886001 0.15331
-0.0092332 0.043680999 0.15069
-0.0086604999 0.044204 0.1508
0.013405 0.05813 0.14207
0.060826998 0.087707996 0.12782
-0.017930999 0.039363001 0.15402
-0.0086984001 0.045731001 0.15207
0.014626 0.058416001 0.14383
0.061087999 0.086884998 0.12896
0.060812 0.086860001 0.1288
0.015126 0.060263999 0.14414001
0.014823 0.059982002 0.14454
0.015446 0.059507001 0.14382
0.014369 0.059650999 0.14516
-0.0066494001 0.045673002 0.15229
-0.018095 0.038756002 0.15620001
-0.0055914 0.046693001 0.15419
0.017168 0.060486998 0.14580999
0.035379 0.072783999 0.13898
-0.037526 0.02585 0.16325
-0.038341999 0.026396999 0.16447
0.015683001 0.061117001 0.14597
0.034871999 0.072314002 0.13866
-0.0048841001 0.047796998 0.15363
-0.0057402998 0.045299001 0.15372001
0.016503001 0.059330001 0.14652
0.036570001 0.072315998 0.13995001
0.036047 0.071043998 0.14021
0.019100999 0.060281001 0.14633
0.017395999 0.060952 0.14580999
0.035762001 0.072506003 0.1411
0.018259 0.060768999 0.14698
-0.0038787001 0.047343001 0.15591
0.035999 0.072077997 0.14125
-0.019708 0.037227999 0.15948001
-0.01949 0.036927 0.16052
-0.0044506001 0.049454998 0.15449999
0.036938 0.073311999 0.14308
0.037508 0.072021 0.14187001
-0.0027016001 0.048441999 0.15606999
-0.0018155 0.049194999 0.15516999
0.038277999 0.073261999 0.14380001
0.059138998 0.087035 0.13632999
-0.037530001 0.028325999 0.16791999
-0.0013099 0.048386998 0.15550999
0.018753 0.061790001 0.14913
-0.022952 0.034972999 0.16372
-0.0019508 0.049467001 0.15682
0.037634999 0.072949998 0.14407
0.00076560001 0.050388001 0.15721001
0.020706 0.062910996 0.15028
0.021546001 0.061825 0.1507
0.021190001 0.062757 0.14989001
0.038123999 0.073353998 0.14509
0.059914 0.087568 0.13865
0.059939999 0.086792 0.13812999
-0.024897 0.034779999 0.1657
-0.024081999 0.034412999 0.16604
-0.025539 0.033790998 0.16655999
-0.024638999 0.033776 0.16535001
0.038141999 0.074597001 0.1455
-0.034520999 0.027867001 0.16985001
-0.035757001 0.027768999 0.16912
0.038311999 0.073145002 0.14574
0.061462998 0.086841002 0.13947
0.061487 0.088004999 0.13942
0.0016974 0.051383 0.1587
0.0015995 0.049743 0.15965
0.0022104001 0.049509998 0.16056
0.0013941 0.050666999 0.15831999
0.040006999 0.075343996 0.14789
0.040472999 0.073507003 0.14689
0.040950999 0.074137002 0.14826
-0.026882 0.031502999 0.17055
0.023304 0.063523002 0.15226001
0.040371999 0.074008003 0.14782999
0.061110999 0.087725997 0.13925999
-0.028523 0.031270001 0.17105
-0.027737999 0.030820001 0.17148
0.025164001 0.063988999 0.1541
0.0034077 0.052680999 0.16185001
0.0030797001 0.051141001 0.16116001
0.023639999 0.064613 0.15406001
0.0040822001 0.051906001 0.16134
0.0055276002 0.052776001 0.162
0.023271 0.0647 0.15426999
0.025667001 0.065370999 0.15525
0.042089 0.075000003 0.15045001
0.042312998 0.075978003 0.15028
0.064653002 0.089419 0.14308
0.063804999 0.088978 0.14283
0.0058443001 0.052367002 0.16337
0.006724 0.054333001 0.16377001
0.0059813 0.053327002 0.16448
0.0068084998 0.054821 0.16517
0.044188999 0.07638 0.15148
0.066859998 0.089625001 0.14410999
0.0067857001 0.053424999 0.16566999
0.027339 0.066924997 0.1574
0.066719003 0.090300001 0.14535999
0.0086468002 0.053847998 0.1663
0.028546 0.067075998 0.15908
0.067873001 0.090910003 0.1469
0.029717 0.066670999 0.16021
0.028865 0.066464998 0.16022
0.0085890004 0.055410001 0.16757999
0.047963999 0.078569002 0.15544
0.047525998 0.078588001 0.15487
0.067969002 0.091297999 0.14745
0.047823001 0.078821003 0.15541001
0.069158003 0.092067003 0.14861999
0.030963 0.068420999 0.16158
0.0091885999 0.055741999 0.16904999
0.070766002 0.092927001 0.1489
0.070096001 0.092440002 0.14943001
0.051169999 0.081286997 0.15789001
0.071272999 0.093199998 0.14983
0.011253 0.056187 0.17094
0.01142 0.056777999 0.17112
0.032604001 0.068571001 0.16384999
0.033312 0.068461001 0.16428
0.072810002 0.094194002 0.15265
0.072581999 0.093987003 0.15222999
0.01207 0.056995999 0.17411999
0.033918999 0.069614001 0.16580001
0.012823 0.056871999 0.17364
0.073206 0.094217002 0.15233999
0.013576 0.056906 0.17313001
0.052995 0.082244001 0.15988
0.034031 0.070243999 0.16561
0.052627001 0.081239998 0.16006
0.052602999 0.081312001 0.15989999
0.072108001 0.093943 0.15409
0.073264003 0.094309002 0.15424
0.055126999 0.082739003 0.16226
0.054949 0.082749002 0.16203
0.073941998 0.094586998 0.15546
0.074469998 0.095928997 0.15509
0.035293002 0.071436003 0.1673
0.014442 0.057222001 0.17487
0.015487 0.057743002 0.17567
0.015237 0.058621 0.17576
0.015577 0.058658998 0.17674001
0.0372 0.071921997 0.16993999
0.037636001 0.071579002 0.16919
0.055171002 0.082400002 0.16382
0.056465998 0.082915001 0.164
0.05621 0.083400004 0.16305
0.056846 0.084298 0.16444001
0.017266 0.057925001 0.17887001
0.038479999 0.072343998 0.17094
0.076140001 0.094848 0.15827
0.077330999 0.096348003 0.15936001
0.076723002 0.095459998 0.15877999
0.018226 0.060121998 0.18122
0.057774 0.083893001 0.16756999
0.078256004 0.097251996 0.16224
0.041583002 0.073068 0.1737
0.018798999 0.061593998 0.1824
0.018990001 0.060401 0.18084
0.019004 0.059223998 0.18141
0.040920001 0.074863002 0.17456999
0.01963 0.061177 0.18302
0.078238003 0.097407997 0.16295999
0.079682998 0.096441001 0.16315
0.043164 0.074826002 0.17415
0.078690998 0.097134002 0.16288
0.079056002 0.096799001 0.16305
0.020815 0.060710002 0.18332
0.043304 0.075831003 0.17613
0.059528999 0.085345 0.1698
0.022220001 0.060591999 0.18447
0.045697998 0.077172004 0.17546999
0.045692001 0.076907001 0.17728999
0.079268001 0.097378001 0.16609
0.079279996 0.096979 0.16643
0.021566 0.061363999 0.18545
0.048261002 0.078605004 0.17772
0.079527996 0.097764999 0.16838001
0.022871001 0.062353998 0.18697
0.048094999 0.079020001 0.17806
0.058492001 0.085001998 0.1752
0.049490001 0.079915002 0.17912
0.050987002 0.079478003 0.17986999
0.057875 0.083791003 0.17659
0.058040999 0.084215999 0.17552
0.058308002 0.084360003 0.17839
0.080555998 0.098172002 0.17120001
0.052607998 0.079361998 0.17849
0.052694 0.080147997 0.18029
0.081116997 0.097971998 0.17220999
0.081629001 0.098562002 0.17303
0.081101 0.098154999 0.17073999
0.057746999 0.084895998 0.17763001
0.057517 0.083218999 0.177
0.05838 0.084362999 0.17817
0.025149999 0.063282996 0.18978
0.026838001 0.063749 0.19097
0.026021 0.064301997 0.19074
0.081096999 0.098955996 0.17377
0.027662 0.065329 0.19247
0.080261 0.098539002 0.17617001
0.08145 0.097882003 0.17591999
0.029307 0.066000998 0.19401
0.0051044999 0.051173002 0.20226
0.0048794998 0.050608002 0.20242999
0.0044554998 0.050948001 0.20288
0.080284998 0.09736 0.17789
0.0041139 0.051045999 0.20221999
0.0032812001 0.049288001 0.20442
0.0032203 0.050841998 0.20302001
0.0034576999 0.049879 0.20393001
0.0034902 0.050632 0.20214
0.00081919 0.048294999 0.20383
0.0016915 0.048976 0.20476
0.0015493 0.050223 0.20298
0.0026479 0.050209001 0.20451
0.0065366002 0.051463999 0.20300999
0.0055994 0.052299 0.20321
0.0061307 0.052382 0.20308
0.00098189001 0.049013 0.20517001
0.0055295001 0.051892001 0.20208
0.030944999 0.066799998 0.19494
0.0029555999 0.050535999 0.20648
0.0016682 0.048650999 0.20638999
0.00077133998 0.048806001 0.20565
0.0010308 0.048833001 0.20603999
0.0061531998 0.051573001 0.20386
0.031769 0.067387998 0.19597
0.079007 0.098153003 0.18003
0.0074200002 0.051952001 0.20400999
0.00075487001 0.047874 0.20781
0.0085113002 0.052512001 0.20422
0.0081716999 0.052953001 0.20537999
0.0082598999 0.054049999 0.20523
0.081230998 0.096951999 0.18133999
0.079773001 0.097957 0.18271001
0.0012096 0.048461001 0.20889001
0.0017555 0.048482001 0.20894
0.0095964996 0.052522998 0.20597
0.0094902003 0.053876001 0.20547
0.0095627997 0.054412 0.20593999
0.031808998 0.066799 0.19825
0.079824999 0.096663997 0.18397
0.033944 0.066774003 0.19735999
0.0010633999 0.048787002 0.2102
0.034485999 0.067865998 0.1982
0.0098077999 0.054244 0.2067
0.00036442 0.047060002 0.21055999
0.010972 0.053773999 0.20703
0.035992 0.070115998 0.20031001
0.011688 0.055481002 0.20827
0.011103 0.055229001 0.20908999
0.011213 0.053955 0.20884
0.011007 0.055571001 0.20964
0.037670001 0.070708998 0.20078
0.010842 0.055050001 0.20928
0.079815999 0.096239999 0.18765
0.079479001 0.096198 0.18712001
0.078767002 0.096766002 0.18677001
-0.0039332001 0.045070998 0.21495999
0.078509003 0.096444003 0.18718
0.079452001 0.096166998 0.18854
-0.0046579 0.045324001 0.21594
0.038288001 0.070658997 0.20139
0.011776 0.054430999 0.2103
-0.0058348998 0.044403002 0.21742
-0.0049411999 0.043869998 0.21792001
0.039262 0.071975999 0.20195
0.040658001 0.072292 0.20292
0.040975999 0.072942004 0.2036
0.078345001 0.095126003 0.19187
0.077546999 0.095344 0.19172999
0.013992 0.055831 0.21127
0.01381 0.055762 0.21314999
0.014188 0.055838 0.21391
0.01443 0.056568 0.21331
0.041684002 0.073173001 0.20406
0.077082001 0.093915999 0.19302
0.076892003 0.095114999 0.19238999
0.076982997 0.094554 0.19338
-0.0041660001 0.045738999 0.21984001
0.043409001 0.073886998 0.20433
0.075770997 0.094539002 0.19394
0.077055998 0.095172003 0.19419999
0.075492002 0.094550997 0.19571
0.045724001 0.074336 0.20472001
0.073694997 0.092850998 0.19617
0.074983999 0.092193 0.19656999
0.046891998 0.074821003 0.20575
0.047634002 0.076684996 0.20661999
-0.0034097999 0.045373999 0.22284999
0.073734 0.092513002 0.19811
0.048195999 0.077096999 0.20534
0.071562998 0.090705998 0.20002
0.051155001 0.078495003 0.20645
0.052058 0.080314003 0.20649
-0.0029674 0.045003001 0.22378001
0.015382 0.057018001 0.21748
-0.0036724999 0.045373999 0.22386999
-0.0042277998 0.044367 0.22407
-0.0032595999 0.045485999 0.22531
0.068002999 0.090929002 0.20123
0.069141001 0.090240002 0.20068
0.068843 0.089729004 0.20290001
0.069190003 0.088633001 0.20152999
0.055447999 0.081070997 0.20693
0.057055999 0.082088999 0.20689
0.056867 0.082122996 0.20572001
0.060658999 0.084472001 0.20505001
0.064723998 0.086497001 0.20314001
-0.0038854999 0.044546001 0.22722
-0.0031351 0.044971 0.22535001
-0.0042162999 0.045529 0.22864
-0.0046724998 0.044946 0.22753
-0.0045213001 0.044344001 0.22943
0.017526999 0.057036001 0.22138
-0.0044312002 0.045628 0.22869
-0.0045702001 0.044702001 0.22885001
-0.0033402999 0.045260999 0.22919001
-0.0045562 0.044332001 0.23006
-0.0031685999 0.045462001 0.23013
-0.0012381 0.045278002 0.22961
-0.0026791999 0.046558999 0.22924
-0.0022857999 0.046190001 0.22935
0.015594 0.056855001 0.22394
-0.0017828 0.046269 0.23063
-0.0015509001 0.045510001 0.23131999
-0.0026527999 0.044640999 0.23241
-0.0027325 0.045274999 0.23167001
-0.0064862999 0.043384001 0.23444
-0.0056488998 0.043389998 0.23246001
-0.0049787001 0.042516001 0.23373
-0.0055952999 0.044856001 0.23311999
-0.0068001002 0.041770998 0.23639999
-0.0058754999 0.043294001 0.23582999
-0.0062544998 0.042537998 0.23692
-0.0070171999 0.042621002 0.23502
-0.0038172 0.043161001 0.23851
0.016232001 0.056708001 0.23069
-0.0032229 0.045460999 0.23921999
0.015505 0.055959001 0.23237
0.016005 0.055698998 0.23128
-0.0035123001 0.044339001 0.24107
-0.003216 0.044112999 0.24185
0.015900001 0.055651002 0.23417
-0.0025834001 0.044847 0.24033
-0.001838 0.045208 0.24236
0.014986 0.055842999 0.23563001
0.015417 0.056398001 0.23492999
0.015463 0.055585999 0.23578
-0.003115 0.045506999 0.2418
-0.0029031001 0.044868 0.24205001
0.013579 0.054554999 0.23898
0.01238 0.053638998 0.2405
0.011853 0.053438999 0.24096
-0.0025428 0.045743 0.24583
-0.0010601 0.045136001 0.24519999
0.00041509001 0.046549998 0.24612001
0.0080049997 0.050305001 0.24454001
0.001297 0.046969 0.24654999
0.0016143 0.047104001 0.24618
0.00141 0.046484999 0.24732
0.0019117 0.047198001 0.24786
0.0077493 0.050209001 0.24603
0.0073604002 0.050813999 0.24672
0.0070139002 0.049936 0.24752
0.031849999 0.065272003 0.24440999
0.032724001 0.066081002 0.24465001
0.032685 0.066087 0.24484999
0.031936999 0.065476999 0.24367
0.03142 0.065039001 0.24522001
0.030005001 0.064476997 0.24504
0.029905999 0.064479001 0.24581
0.030409999 0.065540999 0.24685
0.034651998 0.066689998 0.24524
0.030355001 0.064490996 0.24733
0.031339999 0.066253997 0.24774
0.031488001 0.064916998 0.24815001
0.036951002 0.069278002 0.24526
0.036635 0.068571001 0.24513
0.032276999 0.065963998 0.24829
0.032536 0.065439001 0.24798
0.031637002 0.066 0.24872001
0.033477999 0.065309003 0.24918
0.032264002 0.066085003 0.24839
0.032396 0.065902002 0.24939001
0.034557998 0.066239998 0.24884
0.041549001 0.071641997 0.24600001
0.034316 0.067799002 0.25037
0.037721001 0.067442998 0.24992999
0.039333999 0.068871997 0.25018001
0.038915999 0.067996003 0.25112
0.04532 0.073094003 0.24913
0.03994 0.070432 0.25035
0.04479 0.072665997 0.24965
0.044787999 0.072457999 0.24999
0.044957001 0.072644003 0.25001001
-0.016016999 0.040008999 0.12451
-0.01281 0.042863999 0.12362
-0.013862 0.042357001 0.12466
-0.012938 0.043288 0.12358
-0.020965001 0.038226999 0.12676001
-0.012325 0.04301 0.12321
-0.022296 0.038268998 0.12785
-0.02252 0.037147999 0.12895
-0.023329001 0.037214998 0.12939
-0.010185 0.044351999 0.12372
-0.0094619002 0.044392999 0.1245
-0.0095153004 0.044084001 0.12464
-0.021528 0.036598999 0.12854999
-0.024587 0.036033999 0.13093001
-0.0089095002 0.045775 0.12563001
-0.0094267996 0.044431999 0.12551001
-0.058005001 0.016650001 0.14258
-0.057223 0.014829 0.14374
-0.058139 0.014216 0.14362
-0.058212999 0.014114 0.1424
-0.027882 0.033064999 0.13268
-0.056827001 0.015853001 0.14315
-0.028100001 0.033027999 0.13379
-0.055854999 0.016340001 0.14353999
-0.059459001 0.014271 0.14383
-0.057861 0.015305 0.14466999
-0.055691 0.016213 0.14230999
-0.055270001 0.017433001 0.14309999
-0.052728999 0.017823 0.14214
-0.029393001 0.032579001 0.13407999
0.059657 0.087883003 0.10513
-0.0071593998 0.046785999 0.12815
-0.058116 0.014894 0.145
