# .PCD v0.7 - Point Cloud Data file format
VERSION 0.7
FIELDS x y z
SIZE 4 4 4
TYPE F F F
COUNT 1 1 1
WIDTH 1540
HEIGHT 1
VIEWPOINT 0 0 0 1 0 0 0
POINTS 1540
DATA ascii
0.081823997 0.054444 0.061326001
0.081478 0.056428 0.060550001
0.081684999 0.055987 0.061505999
0.1842 0.11802 0.039498001
0.14408 0.092736997 0.0022156001
0.11685 0.082855999 0.028577
0.12106 0.070006996 0.017055999
0.063753001 0.069381997 0.051964
0.18565001 0.12311 0.030579999
0.18623 0.12433 0.030399
0.186 0.1246 0.029782999
0.058219001 0.061172999 0.05844
0.058736999 0.061767999 0.057673
0.11582 0.086782001 0.050291002
0.11581 0.087350003 0.051885001
0.11636 0.087292001 0.051169001
0.10872 0.077467002 0.045350999
0.16912 0.092610002 0.01756
0.16827001 0.092078 0.015946999
0.11919 0.080945 0.040422
0.12015 0.080394 0.039117999
0.16897 0.1322 -0.012173
0.16822 0.13154 -0.012905
0.17425001 0.11397 0.037554
0.17242 0.11486 0.037096001
0.16128001 0.11874 0.060837999
0.16263001 0.11855 0.062066
0.1621 0.1182 0.061487
0.11697 0.097393997 0.0041315001
0.11737 0.098659001 0.0031997
0.11691 0.098614 0.0035289
0.1082 0.096330002 0.017969999
0.059057001 0.079149999 0.063634001
0.060171999 0.079300001 0.06397
0.12256 0.065958999 0.017258
0.12323 0.066694997 0.016657
0.15774 0.055644002 0.020114999
0.15798 0.056430999 0.019399
0.097197004 0.038245998 0.037241999
0.096372001 0.039170001 0.03638
0.096543998 0.039577 0.037484001
0.1159 0.086243004 0.066312
0.12361 0.10013 -0.0068763001
0.12374 0.099661 -0.0075102001
0.14946 0.093705997 0.0017541
0.14819001 0.094267003 0.0018890999
0.14861 0.094779 0.0023473001
0.16271999 0.13413 -0.001362
0.16240001 0.1337 -0.00048846001
0.16365001 0.13348 -0.0012286
0.066615 0.062567003 0.095587
0.066669002 0.062008999 0.097419001
0.16354001 0.071759999 -0.018141
0.16348 0.072253004 -0.01905
0.16316999 0.073513001 -0.019044001
0.16914999 0.10255 0.027085001
0.16917001 0.10184 0.028757
0.076880001 0.043694999 0.071649
0.081706002 0.051720999 0.066590004
0.081626996 0.052257001 0.065582
0.17072 0.1047 0.035339002
0.10819 0.11216 -0.0041693999
0.1091 0.11285 -0.0053376001
0.094938003 0.068643004 0.053268
0.17077 0.10207 0.027828
0.17083 0.10285 0.026988
0.17011 0.10112 0.026665
0.14390001 0.070707999 0.0070099998
0.14308999 0.070354 0.0067508002
0.092881002 0.044211 0.032315001
0.092069998 0.045437001 0.032635
0.14805999 0.10514 0.029651999
0.14721 0.10447 0.030072
0.076182 0.061652001 0.10693
0.11372 0.096459001 0.028398
0.11422 0.095715001 0.027278
0.11336 0.096114002 0.027284
0.16043 0.071924999 -0.020173
0.13770001 0.067406997 0.050303999
0.13787 0.066697001 0.051089998
0.13845 0.067585997 0.050101999
0.064442001 0.052724998 0.11217
0.064962998 0.05277 0.11301
0.063847996 0.05308 0.11215
0.039216999 0.077858999 0.063368998
0.039691001 0.077400997 0.065168001
0.12747 0.070141003 0.065075003
0.15509 0.056435999 -0.013344
0.15443 0.056449998 -0.012667
0.13970999 0.065788001 0.047059
0.13869999 0.065436997 0.048436001
0.16481 0.12153 -0.00033451
0.18912999 0.12820999 0.029414
0.18988 0.12887 0.028853999
0.11514 0.089378998 0.056915
0.11406 0.089804001 0.057156
0.081239 0.046213999 0.061647002
0.16912 0.062789001 -0.022603
0.16812 0.062474001 -0.022567
0.16734 0.062540002 -0.02183
0.17273 0.12827 0.0058510001
0.17319 0.13011999 0.0068080998
0.15391 0.11222 0.048948001
0.15279999 0.11292 0.048253
0.16192999 0.11191 0.0081749
0.16283999 0.1127 0.0086952997
0.060589999 0.04792 0.084210999
0.059489001 0.049073 0.084274001
0.17836 0.099317998 0.037895001
0.17845 0.098164998 0.037808001
0.11308 0.077218004 0.042210001
0.075170003 0.057813998 0.1371
0.074660003 0.059023999 0.1384
0.11534 0.083139002 0.026639
0.11449 0.082659997 0.025327999
0.12234 0.082811996 0.066510998
0.12074 0.082998998 0.067328997
0.12197 0.082748003 0.067446001
0.10123 0.033709001 0.033628002
0.057004999 0.060812999 0.085249998
0.14239 0.097737998 0.034258999
0.14147 0.098916002 0.0339
0.10154 0.092372 0.01431
0.071621999 0.063873 0.1141
0.069945998 0.063585997 0.11332
0.070262998 0.063625 0.11392
0.095069997 0.091219001 0.066067003
0.094246 0.090845004 0.067216001
0.094811998 0.090300001 0.067874998
0.11955 0.058844 0.035105001
0.11889 0.059324998 0.034171
0.15033001 0.12169 0.015349
0.062680997 0.051502001 0.065911002
0.10997 0.096355997 0.027616
0.1106 0.096589997 0.027161
0.11131 0.096022002 0.027011
0.16525 0.12796 0.023809001
0.15929 0.082985997 0.014581
0.15849 0.083425 0.013113
0.15931 0.084187999 0.014089
0.16746999 0.092436999 0.014326
0.11548 0.067629002 0.030192999
0.11528 0.067167997 0.030750999
0.10605 0.10819 -0.0061285999
0.10569 0.10916 -0.0058042002
0.1056 0.10977 -0.0065879999
0.11119 0.088878997 0.0019197999
0.11043 0.089671001 0.0012282
0.14656 0.085626997 0.030608
0.12913001 0.090278998 0.029270001
0.12801 0.090548001 0.029471001
0.13027 0.093759 0.011935
0.12935001 0.093929 0.013069
0.1303 0.094494 0.012211
0.10541 0.099716 0.00046030001
0.10525 0.10006 0.0010711
0.10612 0.10075 0.00053367001
0.15275 0.11398 0.053123999
0.15329 0.11357 0.053993002
0.12307 0.059241999 0.026420999
0.12201 0.060125001 0.026086999
0.1568 0.11234 0.038527999
0.15688001 0.11292 0.038609002
0.066436999 0.082171001 0.064343996
0.066970997 0.083175004 0.063257001
0.14715999 0.046870001 0.0050209998
0.060077 0.052565001 0.098944001
0.059973001 0.054001 0.098718002
0.059905998 0.052212 0.097571
0.050778002 0.099923 0.034908999
0.050570998 0.10084 0.035704002
0.10184 0.092338003 0.062231999
0.074254997 0.087159999 0.064093001
0.073491998 0.085992999 0.065572999
0.075482003 0.034775998 0.047681998
0.055794999 0.061110001 0.081058003
0.1576 0.12372 0.022962
0.14896999 0.071466997 0.0061459001
0.14776 0.071231999 0.0068048998
0.14820001 0.071111999 0.0073843999
0.19304 0.13432001 0.026131
0.19312 0.13592 0.025194
0.19313 0.13534001 0.02623
0.15666001 0.067878 -0.01602
0.11297 0.096841998 0.031261999
0.072499 0.065825 0.079737
0.073288999 0.066515997 0.078665003
0.07333 0.067120001 0.079389997
0.055830002 0.063419998 0.077872001
0.055484001 0.063594997 0.077209003
0.11191 0.085199997 0.072568998
0.11327 0.084312998 0.073765002
0.11305 0.084688 0.072807997
0.15053 0.10826 0.036026999
0.14946 0.1096 0.036945
0.046475999 0.094319001 0.046021
0.04527 0.094360001 0.045136001
0.10113 0.092107996 0.059239
0.15716 0.079878002 0.016898001
0.15658 0.079493999 0.017881
0.17573 0.13437 0.023034999
0.15457 0.070003003 0.018011
0.15501 0.070572004 0.017038001
0.13321 0.093888998 0.0082606999
0.13372999 0.094609 0.0087177996
0.042288002 0.074024998 0.055420998
0.12882 0.082148001 0.046255998
0.12779 0.082231998 0.046087999
0.16561 0.062503003 -0.016960001
0.16554999 0.061781999 -0.017952001
0.18652999 0.13671 0.020437
0.18791001 0.13683 0.020741001
0.061561 0.055388998 0.10958
0.061682999 0.055335999 0.10855
0.13135 0.063979998 0.058571
0.13154 0.065094002 0.059585001
0.12349 0.098017998 -0.011135
0.067217998 0.081542999 0.055323999
0.068511002 0.082672998 0.055597
0.15285 0.12228 0.015079
0.15328 0.1208 0.014323
0.15227 0.12125 0.014965
0.17445 0.1013 0.025659001
0.075011998 0.088397004 0.059739001
0.068319999 0.061836999 0.10513
0.18136001 0.12875 0.026853999
0.18141 0.1278 0.025973
0.17533 0.11316 0.038066
0.17605001 0.1125 0.038001999
0.14480001 0.11045 0.029161001
0.064459004 0.053502001 0.062707998
0.063389003 0.053420998 0.062595002
0.043687999 0.087015003 0.056304999
0.061379001 0.048234999 0.085051998
0.062183999 0.048074 0.085047998
0.057714 0.087840997 0.045522001
0.086896002 0.034657001 0.046073001
0.086138003 0.034192 0.046484001
0.071667999 0.069146998 0.080012001
0.069789 0.068797 0.080481999
0.098356999 0.041974999 0.033092
0.097447999 0.042923 0.033369001
0.094016999 0.074438997 0.072688997
0.12036 0.10687 -0.0091543002
0.12055 0.10576 -0.0085338997
0.14495 0.088104002 0.0014423
0.14421999 0.086871997 0.0013605
0.1432 0.088022999 0.0013991999
0.065192997 0.053041998 0.10919
0.14717001 0.11381 0.015166
0.14799 0.11483 0.016145
0.14252999 0.079299003 0.036292002
0.14286999 0.080444999 0.036262002
0.069813997 0.085423 0.061271001
0.068547003 0.084257998 0.060121998
0.13661 0.076008998 0.056864999
0.13733 0.076715 0.056090001
0.13732 0.077481002 0.056304999
0.075519003 0.05971 0.069146998
0.078116 0.043983001 0.057968002
0.073982999 0.087094001 0.062688999
0.14744 0.10062 0.0027224
0.14653 0.10132 0.0035838999
0.14679 0.10229 0.0036353001
0.12679 0.088036001 0.029934
0.12766001 0.086524002 0.030805999
0.12796 0.087676004 0.029803
0.17126 0.096560001 0.021011
0.17167 0.097278997 0.020259
0.17163 0.09798 0.020330001
0.11543 0.070124 0.028759999
0.044289999 0.072329998 0.067892998
0.099228002 0.083016999 0.049447998
0.15918 0.11971 0.061815001
0.15818 0.11935 0.060869001
0.066404 0.049959 0.070161998
0.067483999 0.050724 0.069385998
0.13202 0.072022997 0.060718998
0.10196 0.088742003 0.014606
0.17178001 0.11532 0.0090720998
0.17174999 0.1144 0.009021
0.068974003 0.079897001 0.053052001
0.16573 0.051155001 -0.017178999
0.14650001 0.078428999 0.030416001
0.14598 0.079697996 0.030781001
0.095995001 0.091352001 0.0087933997
0.096578002 0.091825001 0.0078651998
0.16861001 0.068846002 -0.022662001
0.16889 0.068586998 -0.022775
0.1065 0.067668997 0.068594001
0.10469 0.067270003 0.068144001
0.044709999 0.072907001 0.068934001
0.096161 0.040569998 0.038077001
0.096486002 0.041404001 0.037142001
0.095991001 0.040987998 0.038392
0.077449001 0.051984999 0.055553
0.077008002 0.051270001 0.056099001
0.16269 0.070523001 -0.016373999
0.047159001 0.073651999 0.070900999
0.046936002 0.074084997 0.072352998
0.080665998 0.044608001 0.046882998
0.049942002 0.083939999 0.053963002
0.049135 0.083039001 0.054779001
0.117 0.074473001 0.021042001
0.11751 0.075365998 0.020083999
0.041053999 0.075487003 0.066826001
0.15528999 0.095587 0.030371999
0.15469 0.095976003 0.032152999
0.15734001 0.067139 -0.017154999
0.13568 0.063986003 0.013386
0.054373 0.059223 0.076334
0.10145 0.089300998 0.019470001
0.16996001 0.10011 0.029305
0.16929001 0.099042997 0.028263001
0.16988 0.099604003 0.029476
0.16029 0.051015999 0.019591
0.16012 0.051637001 0.019255999
0.043008 0.080536 0.066613004
0.1302 0.072283998 0.062875003
0.12999 0.072967999 0.063274004
0.14027999 0.080193996 0.050629999
0.13902 0.080577001 0.050545
0.13965 0.079449996 0.051662002
0.16355 0.098614 0.0074866
0.16429999 0.097682998 0.0080139004
0.084252 0.063840002 0.060981002
0.084229 0.063640997 0.060989
0.1812 0.10165 0.038214002
0.18155 0.10259 0.039338
0.18156999 0.10132 0.039523002
0.15956999 0.087232001 0.019344
0.15965 0.086471997 0.018501
0.17570999 0.1087 0.036811002
0.16415 0.093800999 0.01177
0.16412 0.094797999 0.010991
0.13135 0.056883998 0.044422999
0.13177 0.057666998 0.045619
0.13086 0.057365 0.044748001
0.076646 0.042941 0.071840003
0.17246 0.11046 0.037565999
0.17309 0.11073 0.036975998
0.17068 0.10023 0.03743
0.17082 0.10189 0.036568999
0.17030001 0.10095 0.036288999
0.042392999 0.087214999 0.055546001
0.042877 0.086842999 0.056283001
0.13314 0.081035003 0.044178002
0.15657 0.12211 -0.0067040999
0.1575 0.12234 -0.0061248001
0.098380998 0.086025 0.078039996
0.040566001 0.071794003 0.061361
0.039553002 0.072810002 0.061579999
0.040490001 0.071814001 0.060196999
0.078119002 0.066693999 0.12393
0.078230999 0.064760998 0.12329
0.058272999 0.094545998 0.038901001
0.12133 0.099183001 -0.0051981998
0.053091999 0.078524999 0.057448
0.068248004 0.081532001 0.066714004
0.067776002 0.082428999 0.065255001
0.15327001 0.045917999 0.0045391
0.15304001 0.045565002 0.0049998998
0.071824998 0.081060998 0.051794998
0.058194 0.058577999 0.060617998
0.097514004 0.065823004 0.061684001
0.098187 0.065862998 0.062604003
0.096832998 0.065825999 0.062236
0.1812 0.13028 0.020978
0.18137001 0.13106 0.021628
0.18107 0.13023999 0.022415999
0.078534998 0.057688002 0.13839
0.079021998 0.057907 0.13923
0.078901 0.057296999 0.13989
0.14678 0.046929002 0.01084
0.10198 0.090722002 0.06701
0.10275 0.090053 0.067663997
0.072623998 0.06081 0.12992001
0.1204 0.058733001 0.033103
0.12075 0.057803001 0.034120001
0.12754001 0.082965001 0.056880001
0.17826 0.096202999 0.037462
0.17862999 0.096716002 0.038499001
0.082193002 0.048034001 0.063010998
0.14357001 0.062351 0.023374001
0.15841 0.051498 -0.014428
0.15736 0.052223001 -0.014438
0.17896 0.14235 0.013448
0.17834 0.14143001 0.013886
0.17804 0.14303 0.012935
0.069438003 0.04984 0.080853999
0.054724 0.054992002 0.071089998
0.066538997 0.050533999 0.098949
0.070505001 0.037119001 0.052444
0.070473 0.036979001 0.053369999
0.12273 0.066142 0.018192001
0.12217 0.067103997 0.018422
0.11574 0.076816998 0.035673
0.1153 0.075621001 0.036449
0.11605 0.077679001 0.036348
0.15634 0.11979 -0.012184
0.156 0.119 -0.011535
0.15565 0.11997 -0.012614
0.12031 0.058722001 0.059721
0.06814 0.064255998 0.092050999
0.067585997 0.063947998 0.090919003
0.066464998 0.062875003 0.091780998
0.11647 0.094815001 0.024862999
0.054095 0.057036001 0.077027999
0.063294001 0.030665001 0.057893001
0.092010997 0.089716002 0.053048
0.13324 0.083884001 0.035027999
0.13379 0.083504997 0.035753999
0.13417 0.093207002 0.031941
0.13494 0.093244001 0.032547999
0.1347 0.094020002 0.031117
0.17563 0.14294 0.021880001
0.17478 0.14274 0.020714
0.17382 0.1416 0.021467
0.15882 0.087056004 0.020411
0.15888999 0.087709002 0.021385999
0.15181001 0.11252 0.032729
0.16113 0.12848 0.01884
0.085513003 0.083221003 0.076830998
0.10751 0.096621998 0.018704001
0.10702 0.096353002 0.017836999
0.13462999 0.096978001 0.023187
0.13399 0.097189002 0.022961
0.1001 0.088578001 0.01192
0.072618 0.055927001 0.12043
0.03881 0.076182 0.058120001
0.038651999 0.075182997 0.058823001
0.038415998 0.075787 0.059976
0.10323 0.064593002 0.058189999
0.14362 0.075011998 0.0044644
0.14465 0.074481003 0.0044371998
0.12839 0.082266003 0.038546
0.12809999 0.082148001 0.039337002
0.16666 0.099193998 0.026388001
0.18257999 0.13123 0.018743001
0.18370999 0.13199 0.018130001
0.18396001 0.13307001 0.018774999
0.11624 0.073691003 0.027543001
0.11644 0.074667998 0.027264999
0.097113997 0.092573002 0.064981997
0.16274001 0.12167 0.051208999
0.16174001 0.12216 0.051470999
0.11275 0.10153 0.0046787998
0.11214 0.10088 0.0053841001
0.050953999 0.082318999 0.051203001
0.051924001 0.083626002 0.050994001
0.050946999 0.082978003 0.051994
0.15947001 0.10087 0.0046863002
0.15871 0.10024 0.0043326998
0.15804 0.099926002 0.0039904998
0.13811 0.093156002 0.028681999
0.081761003 0.051594 0.058975998
0.081556 0.050914001 0.059831999
0.11838 0.086897999 0.062224999
0.11757 0.086799003 0.063331999
0.13564 0.095265999 0.024767
0.13559 0.093944997 0.0255
0.13555001 0.094287001 0.025029
0.054843001 0.079581998 0.062815003
0.053867999 0.079416998 0.062863998
0.054313 0.079296999 0.063883997
0.10406 0.098807 0.0010616001
0.10346 0.098913997 0.0027904999
0.10465 0.099462003 0.0019413
0.16772 0.12914 0.017616
0.16889 0.12922999 0.017906999
0.16942 0.1283 0.018549001
0.16762 0.12813 0.0094007002
0.16843 0.12863 0.010564
0.16847 0.12888999 0.0085436003
0.15237001 0.086469002 0.0031834
0.11951 0.069828004 0.019011
0.071404003 0.070359997 0.078841001
0.070453003 0.070494004 0.078222997
0.11653 0.062789001 0.032967001
0.11656 0.062359001 0.032031
0.12583999 0.090732999 0.029518999
0.12576 0.090134002 0.029601
0.13149001 0.092001997 0.026109001
0.12025 0.099128999 -0.0021669001
0.14395 0.097543001 0.033757001
0.11502 0.083910003 0.072572
0.11469 0.084365003 0.071663
0.066875003 0.052154001 0.11865
0.066946998 0.052276999 0.11957
0.1153 0.060433 0.043992002
0.1127 0.092017002 0.016016999
0.15779001 0.12605 -0.0072348998
0.1577 0.12675001 -0.0072424999
0.096814997 0.032439001 0.034672
0.095804997 0.031718999 0.035962999
0.095719002 0.033544999 0.035379
0.098226003 0.071484998 0.070423
0.098600999 0.070753001 0.070546001
0.10914 0.10412 0.0021897999
0.047460999 0.099252 0.042872
0.046845999 0.10048 0.041467
0.046723999 0.099210002 0.041976999
0.10295 0.064990997 0.061411999
0.17259 0.11917 0.0050551998
0.17267001 0.11985 0.0048865001
0.17275999 0.11941 0.0059477999
0.18192001 0.14957 0.018105
0.17963 0.14895 0.017976999
0.10329 0.064636 0.056669999
0.1026 0.064912997 0.057388999
0.053888001 0.068360999 0.055594001
0.18018 0.15015 0.011417
0.089289002 0.048574999 0.033760998
0.090025 0.048409 0.033638999
0.090287 0.047297001 0.033163998
0.096915998 0.087885 0.073156998
0.10107 0.090005003 0.0056675002
0.10067 0.089794002 0.0063852002
0.10038 0.089307003 0.0063999998
0.12894 0.058223002 0.023530001
0.12811001 0.057844002 0.024831001
0.17226 0.12532 0.037735
0.17299999 0.12448 0.037597999
0.13572 0.10252 0.01426
0.13576999 0.10321 0.015555
0.13522001 0.10421 0.014242
0.14506 0.076700002 0.031977002
0.14481001 0.076669 0.033797
0.14500999 0.076026 0.03272
0.10622 0.063983999 0.054161001
0.17126 0.12530001 -0.0074379002
0.17086001 0.12627999 -0.0074423002
0.17141999 0.12576 -0.0063807
0.12692 0.077815004 0.067680001
0.12744001 0.078502998 0.067923002
0.15388 0.11773 0.057549998
0.15465 0.11854 0.056922
0.055185001 0.090249002 0.036307
0.064788997 0.090731002 0.032908
0.065081999 0.090660997 0.033211999
0.10456 0.091473997 0.065003999
0.16196001 0.1135 0.0087890998
0.095209002 0.039441001 0.032478999
0.094448999 0.038791001 0.03303
0.16203 0.12226 0.046934001
0.18583 0.14872 0.012305
0.14913 0.082618997 0.031078
0.14936 0.081851996 0.030781001
0.12868001 0.055936001 0.043466002
0.13027 0.056396 0.043462999
0.12953 0.056340002 0.044259001
0.064384997 0.070335999 0.073154002
0.063681997 0.069688 0.073604003
0.17017999 0.11643 0.038091999
0.16971999 0.11697 0.037934002
0.15556 0.1235 0.016145
0.17309999 0.12055 0.0042395
0.10915 0.076410003 0.073886998
0.10965 0.077009998 0.073752001
0.15459999 0.11843 0.034634002
0.15339001 0.11843 0.033597
0.14339 0.063445002 0.028485
0.14353 0.063905001 0.029345
0.088970996 0.041946001 0.046383999
0.088784002 0.043767001 0.045584001
0.088004999 0.043163002 0.046746999
0.13549 0.080487996 0.043981001
0.071947999 0.062169999 0.075894997
0.071999997 0.062996 0.076380998
0.15781 0.12279 0.0085803997
0.11046 0.090783998 0.062431
0.14483 0.10465 0.03297
0.14566 0.10556 0.032449
0.16441999 0.1311 -0.012815
0.15182 0.11511 0.050216999
0.15191001 0.1148 0.049430002
0.058327001 0.086447999 0.041740999
0.072631001 0.058375999 0.12853
0.16888 0.12981001 -0.014177
0.16798 0.13060001 -0.013951
0.16912 0.13083 -0.014427
0.13991 0.082966 0.035585001
0.074198 0.062351 0.071466997
0.15318 0.051957998 0.014439
0.064305 0.054986 0.059186999
0.13548 0.062536001 0.051378001
0.13589001 0.063496001 0.052374002
0.11575 0.073014997 0.029331001
0.11592 0.073848002 0.028322
0.17064001 0.12585001 -0.0037376001
0.1534 0.047329001 -0.0072861002
0.15304001 0.047556002 -0.0079853004
0.14511 0.096225001 0.029918
0.048776001 0.071076997 0.055939
0.13258 0.055985998 0.034954
0.11308 0.099662997 0.0054648998
0.11277 0.1003 0.0054092002
0.11257 0.098931 0.0063355998
0.17128 0.13439 0.025074
0.17185 0.13326 0.024521001
0.16703001 0.12711 0.010232
0.16784 0.12707999 0.0095105004
0.066129997 0.050528001 0.10089
0.066255003 0.051580999 0.10215
0.065384001 0.051243 0.10146
0.055484001 0.053304002 0.088238001
0.055399001 0.055160999 0.087316997
0.055319998 0.053883001 0.087467998
0.071667999 0.06752 0.10053
0.071955003 0.067530997 0.099662997
0.1832 0.096541002 0.053975001
0.18329 0.096784003 0.053888001
0.066348001 0.048767 0.079600997
0.1121 0.064172998 0.044728
0.1111 0.064639002 0.045977
0.11161 0.065586001 0.044629999
0.13955 0.095196001 0.027781
0.16535001 0.11059 -0.0013017
0.1125 0.093579002 0.024979001
0.11275 0.093344003 0.024336999
0.13727 0.10397 0.012899
0.13666999 0.10352 0.013595
0.13713001 0.10454 0.014186
0.16215999 0.086848997 0.014153
0.16199 0.085803002 0.012706
0.18185 0.13123 0.020268001
0.18178999 0.13184001 0.020737
0.14745 0.085483 0.029308001
0.14929 0.059602 0.0054783002
0.055176999 0.058949001 0.063011996
0.053877 0.059905 0.063189
0.17459001 0.11266 0.014994
0.17536999 0.11324 0.016297
0.079085998 0.065316997 0.12415
0.15632001 0.095954999 0.030107001
0.11079 0.099495001 -0.0037976999
0.11001 0.098160997 -0.0030938
0.1097 0.10003 -0.0038093
0.14579999 0.072108001 0.030325999
0.1463 0.071399003 0.02981
0.1574 0.12435 0.007491
0.15815 0.12324 0.0072658998
0.15693 0.12369 0.0084926998
0.15881 0.11815 0.051104002
0.16847999 0.12695 0.036768001
0.16896001 0.12758 0.036451001
0.066522002 0.068437003 0.076981999
0.065304004 0.068696 0.076412
0.064653002 0.068021998 0.077380002
0.099008001 0.080562003 0.049052
0.098182 0.081433997 0.049362
0.11631 0.089847997 0.056827001
0.11662 0.090267003 0.056653999
0.1287 0.062692001 0.060325
0.1046 0.099197 0.00095622003
0.14711 0.086836003 0.032735001
0.14605001 0.085341997 0.032320999
0.14684001 0.086314999 0.031569
0.14464 0.055075001 0.011406
0.19113 0.13798 0.01685
0.087158002 0.088326 0.070252001
0.086839996 0.088551998 0.069921002
0.085556 0.088322997 0.06927
0.069586001 0.053396001 0.094732001
0.18015 0.14334001 0.030672999
0.052506998 0.075097002 0.054853
0.1436 0.068880998 0.037932999
0.16913 0.094805002 0.029887
0.16225 0.094368003 0.033075001
0.1611 0.094203003 0.033496
0.1094 0.087366998 0.026652001
0.070064999 0.036448002 0.051374
0.069902003 0.036991 0.052474
0.049573999 0.10305 0.037285998
0.057190001 0.050173 0.085680999
0.11459 0.079887003 0.043515999
0.089378998 0.044603001 0.044709001
0.088529997 0.045572001 0.045304999
0.14024 0.10952 0.025746001
0.14105999 0.11001 0.026517
0.14105999 0.11062 0.026215
0.16399001 0.11998 0.051091
0.16377001 0.12088 0.051111002
0.13873 0.080715999 0.051791999
0.1382 0.080842003 0.050824001
0.13792001 0.090470001 0.030117
0.15549999 0.052933 0.0016682
0.063574001 0.071886003 0.071397997
0.063685 0.070671 0.072718002
0.064442001 0.071649998 0.071941003
0.15119 0.099124998 0.0023047
0.15053 0.098503001 0.0018864
0.071184002 0.072770998 0.049100999
0.070299 0.073532999 0.049325
0.14523 0.062137999 0.024248
0.072353996 0.077371001 0.071071997
0.072554998 0.076787002 0.072071001
0.14597 0.096266001 0.0026747
0.078390002 0.033296 0.050487
0.077090003 0.033202998 0.050535999
0.11563 0.082198001 0.026450999
0.11674 0.082245 0.027464001
0.11696 0.094754003 0.023247
0.11664 0.095050998 0.022151001
0.11596 0.095344 0.023267999
0.079931997 0.068526 0.051814001
0.15736 0.092572004 0.027446
0.14291 0.099432997 0.028241999
0.14248 0.10015 0.028925
0.14361 0.1003 0.0288
0.14156 0.10019 0.033491999
0.14927 0.097640999 0.031507999
0.080670998 0.063507996 0.12181
0.081641003 0.064194001 0.12297
0.17572001 0.10373 0.028263001
0.082059003 0.044898 0.067230001
0.082220003 0.045338999 0.068356998
0.082350999 0.044712 0.068767004
0.17534 0.13021 0.027136
0.17607 0.13146999 0.028137
0.16941001 0.054616001 -0.016559999
0.16852 0.055376001 -0.016166
0.082969002 0.060205001 0.061257001
0.069591999 0.051318999 0.075949997
0.068502001 0.051004998 0.075070001
0.081671 0.054168001 0.062256999
0.081717998 0.055103999 0.062213998
0.1793 0.095316999 0.051089998
0.095772997 0.08941 0.01363
0.16581 0.1285 0.0017441
0.1652 0.12789001 0.0016852
0.16546001 0.1276 0.0025078
0.079256997 0.033119 0.048769001
0.070354 0.056389999 0.082649
0.071001999 0.055541001 0.083747998
0.13518 0.085256003 0.0036972
0.13610999 0.085868999 0.0034055
0.15227 0.12342 0.0034272
0.17167 0.10359 0.015826
0.17134 0.10354 0.015035
0.11738 0.079094 0.030191001
0.099866003 0.065583996 0.065219998
0.10014 0.066281997 0.064049996
0.050983001 0.091665 0.038536001
0.095609002 0.091452003 0.065126002
0.098003998 0.065898001 0.058421999
0.083884999 0.043526001 0.073922001
0.090171002 0.067295998 0.056848001
0.17504001 0.095751002 0.03472
0.17442 0.096510001 0.034368001
0.095307 0.072411999 0.050615001
0.095611997 0.073541999 0.050000999
0.10996 0.087894 0.067647003
0.11584 0.075944997 0.032664001
0.1591 0.067340001 -0.012187
0.12614 0.087154999 0.010499
0.18356 0.12334 0.026969001
0.18321 0.12478 0.028166
0.15952 0.061877999 -0.017808
0.16788 0.094199002 0.014386
0.16791999 0.095886 0.014646
0.16855 0.094963998 0.015049
0.14670999 0.084280998 0.0020756
0.14641 0.085170999 0.0017064
0.16501001 0.063248999 -0.013877
0.052344002 0.085170999 0.050900999
0.12413 0.088083997 0.014716
0.12438 0.088087998 0.013227
0.12885 0.060578998 0.056851
0.12932999 0.060316 0.055937
0.17294 0.051670998 -0.023785001
0.17196 0.050942 -0.022911999
0.049713999 0.085299999 0.041986
0.049237002 0.084045 0.043138999
0.049307 0.085699998 0.042057998
0.15432 0.049784001 0.013226
0.15516999 0.050411001 0.012353
0.15433 0.051762 0.012965
0.15403999 0.10696 0.036343001
0.15376 0.10622 0.035870999
0.076389 0.034960002 0.059751999
0.077889003 0.034908999 0.060552001
0.077082001 0.035094999 0.061110001
0.094139002 0.075599 0.073310003
0.092807002 0.076072 0.073484004
0.15674999 0.049872998 0.006724
0.15673 0.048719998 0.0076612001
0.15654001 0.048792001 0.0066126999
0.16456001 0.10515 0.0076719001
0.14864001 0.10567 0.029790999
0.15806 0.11911 0.050979
0.097287998 0.066083997 0.063345999
0.15858001 0.084275 0.017914999
0.086911999 0.068441004 0.053245999
0.11423 0.10939 -0.011961
0.11179 0.079048999 0.073886998
0.075499997 0.057606999 0.13417
0.076026 0.057232998 0.13479
0.075012997 0.058061998 0.13502
0.14602999 0.076344997 0.030074
0.14638001 0.077017002 0.029971
0.10329 0.094452001 0.020653
0.10299 0.093641996 0.021219
0.062761001 0.033647001 0.057505999
0.062537 0.033328999 0.056526002
0.13753 0.080604002 0.051847
0.1372 0.080858 0.05088
0.17900001 0.092082001 0.048586
0.14797001 0.082438 0.028642001
0.14909001 0.083172999 0.028059
0.11374 0.073830001 0.036954999
0.1142 0.07446 0.038068999
0.1145 0.074212998 0.03633
0.14594001 0.078075998 0.0037225001
0.15919 0.094437003 0.027116001
0.18461999 0.14500999 0.027985999
0.16192 0.11531 0.046548001
0.16323 0.11696 0.046688002
0.16240001 0.11602 0.047594
0.030595999 0.083705001 0.054924998
0.1434 0.088358 0.032807998
0.14182 0.089052998 0.032129999
0.14253999 0.088087998 0.031929001
0.17235 0.12733001 0.018773001
0.16728 0.053897001 -0.013077
0.11868 0.057548001 0.048613001
0.18389 0.13289 0.029345
0.18379 0.13326 0.027871
0.18472999 0.13348 0.028712999
0.16509999 0.10745 0.042332999
0.065517999 0.061636999 0.10683
0.15447 0.057131 0.01219
0.060001001 0.051511001 0.068222001
0.16991 0.095651001 0.029782001
0.17081 0.096400999 0.028988
0.096758999 0.035011999 0.033461999
0.095762998 0.036481 0.033721
0.096035004 0.035620999 0.033406999
0.054030001 0.073866002 0.067815997
0.053266 0.073291004 0.068677001
0.10229 0.073596001 0.073909998
0.10101 0.074477002 0.074125998
0.11739 0.079149999 0.01969
0.11709 0.080825001 0.018812001
0.065511003 0.076738 0.068829998
0.064773999 0.076796003 0.068317004
0.063667998 0.075769998 0.069162004
0.14398 0.066183999 0.0090536
0.10922 0.095045 0.029261
0.16198 0.12628999 0.024606001
0.16189 0.12593 0.026296001
0.16291 0.12649 0.025588
0.11547 0.10877 -0.0086971
0.11515 0.11014 -0.0087331999
0.19235 0.13507999 0.027819
0.19272999 0.1355 0.027564
0.046987999 0.078309 0.052877001
0.1101 0.088154003 0.0048246998
0.11029 0.087954 0.0065302001
0.078530997 0.068582997 0.11944
0.078828998 0.068824001 0.1211
0.079348996 0.068659 0.12057
0.18871 0.14572001 0.021407001
0.15214001 0.11432 0.048011001
0.15283 0.113 0.048804998
0.13299 0.067541003 0.058515999
0.16606 0.11356 0.039531
0.16848999 0.11593 0.0026988999
0.16766 0.11593 0.0022272
0.13865 0.10968 0.019555001
0.13959 0.10924 0.019176999
0.16850001 0.095472001 0.030043
0.12489 0.090286002 0.015058
0.12491 0.089553997 0.014762
0.12424 0.089964002 0.015567
0.16015001 0.050480999 -0.013608
0.15963 0.050942998 -0.014062
0.16032 0.051222999 -0.015055
0.15199 0.077613004 0.023023
0.15238 0.077466004 0.022549
0.15318 0.077575997 0.02186
0.10597 0.069936998 0.071181998
0.10547 0.069594003 0.070648998
0.059836999 0.076715998 0.066554002
0.059009001 0.077017002 0.066141002
0.059280999 0.076076999 0.067190997
0.060524002 0.048305999 0.088111997
0.059579 0.048900999 0.088288002
0.14195 0.076976001 0.042465001
0.14187001 0.076186001 0.042264
0.14140999 0.061055999 0.030842001
0.15312999 0.095738001 0.0028198999
0.15425999 0.095808998 0.0031850999
0.15476 0.094731003 0.0034018001
0.11621 0.079306997 0.038423002
0.11677 0.080009997 0.038019001
0.076287001 0.067544997 0.11952
0.077334002 0.067841001 0.1204
0.078047 0.068227999 0.11992
0.062095001 0.065174997 0.079112999
0.10521 0.087627001 0.050399002
0.1806 0.12748 0.01401
0.096093997 0.075382002 0.073608004
0.094654001 0.076683998 0.073523
0.12066 0.057427 0.053702001
0.12228 0.057264 0.054154001
0.12131 0.057684999 0.054570001
0.14988001 0.090510003 0.033934001
0.1769 0.14140999 0.022421001
0.10629 0.086438 0.012904
0.1047 0.086662002 0.014203
0.098352 0.032033999 0.037728999
0.096028 0.031845 0.037783001
0.059384 0.076876 0.056226999
0.059714999 0.078043997 0.056644
0.055567 0.10261 0.033222001
0.054992002 0.10215 0.034403
0.059424002 0.089507997 0.041343998
0.058607999 0.090664998 0.04267
0.058789 0.090287 0.043600999
0.1113 0.090222001 0.056620002
0.11078 0.090805002 0.057054002
0.048634 0.067991003 0.061813999
0.048122998 0.067789003 0.062523
0.047100998 0.068181999 0.062964998
0.18358999 0.14158 0.027342999
0.18342 0.14105 0.026244
0.12639 0.056591999 0.046418
0.12785999 0.056736998 0.047141001
0.12704 0.056724001 0.047277998
0.065600999 0.079972997 0.065842003
0.065081999 0.078832 0.066565
0.089965999 0.092125997 0.059466001
0.089340001 0.092279002 0.058249
0.088564001 0.091756001 0.059870001
0.11171 0.091149002 0.026724
0.11206 0.090852998 0.028644999
0.14371 0.11079 0.038996998
0.14371 0.10983 0.038888
0.15419 0.11785 0.013041
0.087567002 0.052560002 0.033526
0.095940001 0.04166 0.030813999
0.095305003 0.041244 0.031456999
0.094393998 0.041995998 0.031805001
0.070500001 0.059808001 0.053373002
0.072168998 0.086387999 0.062256001
0.075167999 0.064124003 0.12171
0.074538998 0.063965 0.12252
0.17129999 0.10381 0.027558001
0.17093 0.10346 0.026943
0.091718003 0.047995001 0.038966998
0.091448002 0.047502998 0.039976001
0.13685 0.067700997 0.0088362005
0.13733 0.067996003 0.0079223998
0.13406 0.10112 0.017857
0.13579001 0.10216 0.018152
0.1347 0.10201 0.017012
0.16069999 0.13093001 0.0035379
0.16077 0.13095 0.0042884001
0.16128001 0.13197 0.0031556
0.080563001 0.087076999 0.069659002
0.1813 0.12947001 0.025103001
0.15068001 0.11468 0.038830999
0.16842 0.12602 0.0010895
0.16887 0.12525 0.0014925
0.16872001 0.12487 5.2468e-05
0.064097002 0.053539999 0.1103
0.081092998 0.034403998 0.051727001
0.080565996 0.033674002 0.050801001
0.076563001 0.079793997 0.072471999
0.16441 0.11256 0.037760999
0.16369 0.11327 0.038343001
0.11993 0.073328003 0.070028998
0.12061 0.074550003 0.070306003
0.11945 0.073864996 0.070754997
0.13484 0.083279997 0.035914
0.13576999 0.083443001 0.035765
0.17575 0.14417 0.0143
0.17524999 0.14476 0.014957
0.17541 0.14533 0.015305
0.045540001 0.10245 0.037696999
0.045028999 0.10222 0.037069
0.17922001 0.12157 0.034545001
0.17827 0.12269 0.034802001
0.073895998 0.056543 0.12147
0.15415999 0.066339999 0.019367
0.15339001 0.067028001 0.019304
0.17474 0.14178 0.022121999
0.17454 0.14082 0.022777
0.15535 0.067654997 0.011932
0.15558 0.068476997 0.012618
0.13719 0.065190002 0.050714999
0.13789 0.064738996 0.049112
0.13811 0.065697998 0.049917001
0.058837999 0.084742002 0.037392002
0.059301 0.084840998 0.037974
0.081371002 0.056915998 0.14336
0.080582999 0.056759998 0.14301001
0.081150003 0.057211999 0.1419
0.11454 0.081306003 0.023757
0.11561 0.080342002 0.02383
0.13318001 0.081607997 0.056566
0.067694999 0.053111002 0.058921002
0.086397 0.037893001 0.049435001
0.086548001 0.037356999 0.048523001
0.14650001 0.075361997 0.029633
0.14733 0.074724004 0.028886
0.14757 0.074901998 0.028663
0.10154 0.091686003 0.017879
0.10171 0.091548003 0.019673999
0.14256001 0.069227003 0.042004
0.067427002 0.053371001 0.11449
0.066757999 0.053094 0.11503
0.071204998 0.061299998 0.12428
0.071002997 0.060462002 0.12462
0.071966998 0.061562002 0.12517001
0.074731 0.067215003 0.073697001
0.074252002 0.067362003 0.074317999
0.072855003 0.048351999 0.066765003
0.071957 0.048195999 0.065633997
0.07198 0.047192 0.066058002
0.17506 0.10076 0.030363001
0.077950001 0.035289999 0.045802999
0.077789001 0.036922999 0.045368999
0.078657001 0.036460999 0.045240998
0.10306 0.082805999 0.048716001
0.18127 0.12034 0.024816999
0.18181001 0.12116 0.024222
0.17481001 0.1143 0.037737001
0.13809 0.1053 0.016261
0.13801 0.10601 0.016244
0.1388 0.10625 0.01712
0.11062 0.087506004 0.015274
0.11006 0.086856 0.01543
0.17095 0.12593 -0.0045343
0.16972999 0.12654001 -0.0036112
0.077242002 0.063330002 0.12847
0.077528998 0.063096002 0.12917
0.071079001 0.053845 0.076715
0.16418 0.13334 -0.0097246999
0.18814 0.13868999 0.0087620998
0.16321 0.11816 0.063426003
0.14256001 0.097296 0.034308001
0.074364997 0.062376 0.13276
0.073661 0.061806001 0.13278
0.045642 0.094954997 0.041336
0.17964999 0.10875 0.037739001
0.17924 0.10803 0.036747001
0.077477001 0.033425 0.053073999
0.13373999 0.086593002 0.031982999
0.13420001 0.087572999 0.030833
0.1332 0.088028997 0.030516
0.048002001 0.095847003 0.038035002
0.047111001 0.094869003 0.038903002
0.11262 0.097259998 0.0070198998
0.1115 0.096951999 0.0077371998
0.17036 0.097609997 0.027891999
0.16977 0.096703 0.028386001
0.17285 0.097603999 0.033822998
0.1737 0.097935997 0.032903001
0.17442 0.097686 0.033052001
0.14981 0.045331001 -0.00044726999
0.063153997 0.054257002 0.1125
0.062394999 0.055516001 0.11154
0.063213997 0.054931 0.11121
0.078962997 0.065357998 0.11369
0.079138003 0.065733001 0.11439
0.079290003 0.064970002 0.11429
0.11802 0.060855001 0.031884
0.14030001 0.10172 0.024141001
0.14146 0.10222 0.024571
0.072967999 0.057455 0.054217
0.072084002 0.05796 0.055023
0.071865 0.058254 0.053948998
0.19069999 0.12948 0.029065
0.16870999 0.098875001 0.014584
0.16858 0.099751003 0.01449
0.1698 0.10011 0.014428
0.055369001 0.077655002 0.065591998
0.055413 0.075969003 0.066531003
0.055640999 0.076522999 0.065838002
0.10908 0.090838 0.056577999
0.10968 0.090588003 0.055789001
0.071765997 0.064602003 0.082082003
0.071388997 0.065185003 0.082612999
0.070955001 0.063616998 0.083012
0.13982999 0.099385999 0.025188999
0.13673 0.10687 0.015269
0.17857 0.14064001 0.015332
0.17759 0.14057 0.014542
0.19036999 0.13641 0.015511
0.19013999 0.13614 0.014737
0.12372 0.081119999 0.01129
0.12342 0.081373997 0.012431
0.15536 0.056875002 0.010176
0.15548 0.055321001 0.0087364996
0.15526 0.056476001 0.0089653004
0.14441 0.054659002 0.010633
0.071445003 0.048583001 0.064205997
0.11575 0.057953998 0.056162
0.075804003 0.058676001 0.11499
0.11881 0.10575 -0.0063670999
0.053684998 0.059528999 0.072388999
0.13143 0.090295002 0.0074526002
0.13248 0.091054 0.0069904001
0.097802997 0.092577003 0.0075516999
0.098504998 0.093654998 0.0087328004
0.16434 0.087163001 0.014546
0.056147002 0.051532 0.079907
0.14359 0.081217997 0.044498999
0.14419 0.081896 0.045503002
0.16405 0.13293999 -0.0012572
0.1392 0.060001001 0.031148
0.11888 0.058846001 0.036123998
0.11278 0.10735 -0.0029432999
0.15325999 0.10946 0.037549
0.1866 0.14226 0.028129
0.067202002 0.048808001 0.089069001
0.068085998 0.049477 0.088152997
0.068731003 0.050037 0.089244999
0.18616 0.13097 0.013264
0.17839 0.093826003 0.039872002
0.17856 0.094958998 0.03957
0.17906 0.095252998 0.040332001
0.15865 0.090634003 0.028866
0.15995 0.091968 0.029154999
0.14216 0.099372998 0.0060139
0.14289001 0.1005 0.0063101999
0.14325 0.10027 0.0054580998
0.13418999 0.082574002 0.036772002
0.13441999 0.081992 0.036888
0.11188 0.077197 0.043361999
0.1115 0.076387003 0.042948999
0.14811 0.045221999 0.0068361
0.081301004 0.043703001 0.050515998
0.16421001 0.12126 -0.0055137998
0.1192 0.10142 -0.00095035002
0.13799 0.060311999 0.042509999
0.079487003 0.089882001 0.056958999
0.080908999 0.090508997 0.057976
0.079912998 0.089997999 0.056728002
0.12675001 0.066954002 0.013543
0.12547 0.067101002 0.014482
0.1259 0.068149999 0.013458
0.087050997 0.052207001 0.037422001
0.088756002 0.052746002 0.037137002
0.087807 0.052763999 0.036738999
0.16155 0.12156 0.043896001
0.16 0.1219 0.044872001
0.054055002 0.095256001 0.042334002
0.053479001 0.096562997 0.042886999
0.06047 0.086131997 0.039425001
0.065577999 0.061765999 0.10914
0.065727003 0.061873998 0.11009
0.17914 0.11804 0.035122
0.059160002 0.052724998 0.096358001
0.05931 0.054120999 0.097115003
0.058834001 0.053707998 0.095675997
0.13083 0.064722002 0.060279999
0.15522 0.11863 -0.010961
0.15454 0.11904 -0.010354
0.15436 0.11847 -0.012216
0.13034999 0.056710001 0.025946001
0.061048999 0.057363998 0.10978
0.11319 0.095186003 0.031452999
0.11145 0.095432997 0.032079998
0.11231 0.094492003 0.031486999
0.088610999 0.068253003 0.054072
0.088991001 0.067937002 0.055181999
0.13519999 0.097188003 0.0084405001
0.13474999 0.097538002 0.010104
0.13517 0.098164998 0.0095165996
0.16195001 0.12101 0.010893
0.16287 0.12012 0.010106
0.16266 0.1193 0.010297
0.18007 0.094734997 0.052129999
0.090155996 0.051192001 0.032329999
0.12779 0.065044001 0.062251002
0.12749 0.064189002 0.061588999
0.1286 0.063896 0.061480999
0.1062 0.091452003 0.061269
0.10577 0.091500998 0.060555
0.097223997 0.067417003 0.054140002
0.098839 0.066781998 0.055048
0.17722 0.10383 0.030711001
0.17727999 0.10445 0.030618001
0.17732 0.10533 0.030406
0.051968001 0.063888997 0.062065002
0.051998999 0.063175999 0.063383996
0.11822 0.083557002 0.070522003
0.11767 0.083622999 0.071585
0.086153001 0.046852998 0.044396002
0.10921 0.082590997 0.020033
0.10963 0.082393996 0.019223001
0.11709 0.093278997 0.030937999
0.11636 0.092979997 0.03128
0.17273 0.096606001 0.035422999
0.17174999 0.098007001 0.035036001
0.17315 0.096983001 0.034417
0.13301 0.088590004 0.0059105
0.053941 0.064397 0.059897002
0.053006999 0.065079004 0.060111001
0.053314999 0.065609001 0.058846999
0.14121 0.10003 0.0064645
0.14149 0.099079996 0.0062603001
0.15045001 0.043319002 0.0082617998
0.15149 0.043423001 0.0094005
0.15058 0.043372001 0.010281
0.064870998 0.047770001 0.084074996
0.065581001 0.048183002 0.083471999
0.11271 0.060008001 0.052611999
0.12286 0.05847 0.028387999
0.12207 0.058823001 0.028355001
0.15017 0.045309 -0.00071470998
0.15103 0.045816001 6.8959998e-05
0.077607997 0.043191999 0.055298999
0.077555001 0.043342002 0.056692
0.078607999 0.043308999 0.056511
0.071471997 0.075135998 0.048857
0.070045002 0.075557001 0.049778
0.071422003 0.079888999 0.069337003
0.070984997 0.080490999 0.068813004
0.12085 0.068572 0.068149
0.081584997 0.069656998 0.1221
0.14374 0.081557997 0.03486
0.1432 0.081890002 0.035604998
0.16542 0.065109998 -0.015579
0.16481 0.064966001 -0.01464
0.17262 0.10496 0.016364999
0.16741 0.10006 0.027322
0.15603 0.077894002 0.011959
0.12298 0.082432002 0.067417003
0.11901 0.058077998 0.041944001
0.051559001 0.072038002 0.069678001
0.1661 0.063096002 -0.015977001
0.16625001 0.063764997 -0.016922001
0.16619 0.064487003 -0.016913
0.18829 0.14692 0.012625
0.18809 0.14708 0.013616
0.18844999 0.14578 0.012822
0.14279 0.081972003 0.043350998
0.05988 0.090549 0.037772998
0.060031001 0.090056002 0.038366999
0.098200001 0.082638003 0.075745001
0.097176999 0.081770003 0.075251997
0.098382004 0.088942997 0.0084432
0.069115996 0.064378001 0.088372998
0.069959998 0.063363999 0.088055998
0.18677001 0.13763 0.022379
0.1869 0.13729 0.022787999
0.061753999 0.056350999 0.1052
0.061896998 0.057541002 0.10608
0.061531998 0.057393 0.10508
0.093980998 0.044700999 0.037698999
0.093510002 0.045111999 0.03774
0.093324997 0.045736998 0.038261
0.17261 0.12847 0.013819
0.17162 0.12751999 0.014127
0.1725 0.12775999 0.014151
0.17403001 0.099983998 0.031030999
0.154 0.070846997 0.018456999
0.13233 0.074570999 0.060373999
0.052407 0.088794999 0.039168999
0.051757999 0.088079996 0.039964002
0.050754 0.088886 0.040004
0.14218 0.1065 0.023863999
0.14272 0.1067 0.025049999
0.09324 0.092335001 0.059301998
0.092575997 0.091816001 0.058033999
0.17315 0.13355 0.039175
0.17273 0.13305999 0.040553
0.15334 0.055624001 0.013823
0.15346999 0.054983001 0.013289
0.15285 0.055162001 0.014184
0.16314 0.10439 0.035392001
0.16274001 0.10369 0.034858
0.14027999 0.070790999 0.048243001
0.10856 0.089585997 0.064741999
0.15214001 0.11611 0.038740002
0.15305001 0.11686 0.038073
0.15778001 0.097531997 0.0034715
0.15689 0.098434001 0.0038248
0.070706002 0.061942998 0.095221996
0.16378 0.13256 -0.0024204999
0.097011 0.068635002 0.053167
0.097491004 0.069248997 0.052282002
0.098924004 0.068852 0.052597001
0.16320001 0.1054 0.0068645999
0.16223 0.10612 0.0064758002
0.16237999 0.10717 0.0068762
0.050478999 0.081234001 0.061115
0.050244 0.081024997 0.062227
0.051164001 0.080417 0.061889999
0.072980002 0.080243997 0.050223
0.073472001 0.079889998 0.049396999
0.15491 0.062504001 0.019719001
0.1541 0.063213997 0.019472999
0.13691001 0.080427997 0.052746002
0.17275999 0.13077 0.051495001
0.10748 0.1064 0.00022
0.1083 0.070886999 0.072228
0.093145996 0.092059001 0.061186001
0.072509997 0.06233 0.098577
0.071745001 0.062637001 0.097186998
0.15475 0.12182 0.022469999
0.15327001 0.12121 0.023593999
0.15436 0.12184 0.023088001
0.065929003 0.053263001 0.10833
0.15157001 0.11308 0.032899
0.070065998 0.052598 0.082300998
0.12867001 0.083439998 0.055209
0.12819999 0.083301999 0.054196998
0.12772 0.083864003 0.055353001
0.064696997 0.078984 0.053215001
0.063620001 0.078749999 0.053750001
0.064993002 0.079943001 0.054157
0.077872999 0.043476 0.049626999
0.093575001 0.071754001 0.050903
0.093093999 0.072453 0.050349001
0.094380997 0.072756 0.05057
0.060819998 0.059992 0.090168998
0.059700999 0.059989002 0.089661002
0.093436003 0.066274002 0.058637999
0.16891 0.099584997 0.024628
0.16981 0.099950001 0.025676001
0.16103999 0.11804 0.010047
0.16179 0.11902 0.010092
0.078201003 0.038075998 0.044365
0.077624999 0.039090998 0.044599999
0.078472003 0.040019002 0.044160999
0.10355 0.088216998 0.011503
0.1383 0.067332998 0.049816001
0.16885 0.057114001 -0.02187
0.16992 0.055907 -0.021935999
0.11087 0.10127 0.0051123002
0.031426001 0.084063001 0.054497
0.031792 0.084255002 0.054535002
0.17904 0.10859 0.035027999
0.17904 0.10954 0.033962
0.17930999 0.11027 0.034093
0.1719 0.10001 0.018866999
0.19166 0.14212 0.023497
0.19092999 0.14392 0.023784
0.19112 0.14369 0.024703
0.11998 0.057087 0.050521001
0.12042 0.056922 0.051341999
0.11906 0.056972001 0.051295001
0.053011 0.086162999 0.050138
0.17159 0.13485 0.034961998
0.099532999 0.089167997 0.050857
0.099965997 0.090163998 0.052483998
0.076890998 0.066737004 0.12259
0.097351 0.045984998 0.029174
0.097984001 0.046953999 0.029002
0.097673997 0.046326999 0.029619001
0.13756999 0.062963001 0.046771001
0.11029 0.082427002 0.046633001
0.11081 0.081777997 0.04642
0.14025 0.10877 0.026040001
0.14104 0.10926 0.026595
0.065407999 0.054859001 0.12403
0.072214 0.061204001 0.12833001
0.080277003 0.073978998 0.072287999
0.080030002 0.074542999 0.073420003
0.16580001 0.13195001 -0.011977
0.16502 0.13203 -0.011873
0.16779 0.11562 -0.0024875
0.16688 0.11572 -0.0028363999
0.16651 0.11646 -0.0031185001
0.13439 0.080806002 0.054131001
0.16924 0.12636 0.00086612999
0.1697 0.1249 0.0010791
0.056623999 0.051732998 0.072145
0.055987999 0.052462 0.071549997
0.056710999 0.051807001 0.071424
0.13574 0.094760001 0.026331
0.1367 0.095776998 0.025409
0.11568 0.095069997 0.028294001
0.11486 0.095665 0.028116001
0.17843001 0.12971 0.032047998
0.16385999 0.11666 0.0090234997
0.16426 0.11765 0.0092481002
0.048383001 0.10389 0.034894999
0.17554 0.10638 0.03802
0.064558998 0.05398 0.12148
0.064359002 0.054875001 0.12196
0.16473 0.12819999 0.0026219001
0.16166 0.13011 0.019211
0.16281 0.13051 0.020187
0.16306999 0.13039 0.019780001
0.12174 0.089813001 0.030089
0.059822001 0.091238998 0.035810001
0.058940001 0.091591999 0.035944
0.11441 0.072454996 0.071670003
0.11279 0.072718002 0.072026998
0.11353 0.071579002 0.072192997
0.15124001 0.075442001 0.0075698998
0.12685999 0.084650002 0.032756999
0.126 0.084917001 0.03218
0.12116 0.082239002 0.039742
0.12167 0.082016997 0.038260002
0.13584 0.080816999 0.041313
0.13432001 0.080637999 0.041119002
0.091256998 0.077480003 0.048633002
0.061629999 0.062959 0.083079003
0.062052999 0.063612998 0.081827
0.17307 0.13117 0.038789999
0.17227 0.13094001 0.037588999
0.16656999 0.096674003 0.011972
0.18364 0.1455 0.027263001
0.18411 0.14523 0.02813
0.12962 0.056113999 0.042456001
0.12898 0.056173 0.041305002
0.17551 0.12499 0.017565999
0.17416 0.1247 0.017126
0.17454 0.12581 0.01815
0.087145999 0.071718 0.12485
0.12477 0.082834996 0.035537001
0.12627 0.057103999 0.028046999
0.12503 0.057238001 0.028550001
0.087163001 0.083044 0.077311002
0.087103002 0.082235999 0.076301001
0.17304 0.13022 0.035636
0.1719 0.13043 0.035002001
0.066509001 0.062465999 0.10944
0.066780001 0.062495001 0.11071
0.067124002 0.062721997 0.11081
0.13779999 0.097093001 0.025872
0.1383 0.096495003 0.026637999
0.12396 0.082046002 0.036674
0.12306 0.082254 0.037365001
0.18537 0.14241 0.02829
0.18514 0.14121 0.028039999
0.18681 0.13256 0.01216
0.18738 0.13237 0.013041
0.18686 0.13188 0.013025
0.19286001 0.13528 0.025472
0.19209 0.13573 0.024172001
0.12008 0.063836001 0.023675
0.11958 0.063635997 0.024305999
0.11878 0.064781003 0.024573
0.096350998 0.065975003 0.063551001
0.095764004 0.066041999 0.064364001
0.17171 0.096955001 0.026287001
0.17239 0.097021997 0.025726
0.1724 0.097483002 0.025010999
0.16170999 0.10835 0.033555999
0.069957003 0.055137001 0.11053
0.070943996 0.055760998 0.10975
0.070519 0.055289999 0.11046
0.15854 0.1199 -0.0086299004
0.11555 0.063612998 0.066062003
0.16737001 0.051359002 -0.020236
0.15042999 0.10535 0.036290001
0.16240001 0.069619998 -0.020695999
0.17765 0.10658 0.029746
0.10821 0.099877998 0.0052495999
0.10743 0.099864997 0.0051442999
0.090893999 0.067964002 0.066519998
0.090957999 0.067295 0.065206997
0.091243997 0.067973003 0.065844998
0.16285001 0.1233 -0.010257
0.16288 0.12228 -0.0091282995
0.16932 0.12898999 0.031527001
0.1701 0.12796 0.031874999
0.1691 0.12637 -0.012825
0.16744 0.12604 -0.012404
0.16806 0.12733001 -0.012989
0.10982 0.11256 -0.0092292996
0.071877003 0.064942002 0.080536
0.071589001 0.063941002 0.079369999
0.18978 0.14353 0.018934
0.18942 0.14428 0.018154001
0.18923 0.1451 0.018305
0.15217 0.096729003 0.034155998
0.15180001 0.097498998 0.033307001
0.061216999 0.055210002 0.061994001
0.11769 0.084330998 0.030503999
0.11669 0.084094003 0.030231001
0.10492 0.083396003 0.076064996
0.1054 0.084395997 0.075297996
0.089731999 0.084870003 0.049702
0.090296 0.085453004 0.049887002
0.11406 0.066284999 0.034430001
0.114 0.067097999 0.034922
0.097042002 0.080779999 0.049547002
0.096257001 0.081644997 0.049492002
0.15211 0.065592997 0.019445
0.1065 0.088889003 0.052069001
0.1051 0.089575998 0.052501999
0.14345001 0.080995999 0.034616999
0.13709 0.1065 0.021911001
0.07113 0.056120999 0.10197
0.071392998 0.057293002 0.10156
0.070623003 0.075760998 0.049515001
0.070860997 0.076683998 0.049596
0.16768999 0.060709 -0.017237
0.16727 0.060591001 -0.016488999
0.16729 0.059907001 -0.015796
0.081321999 0.039297 0.055693001
0.081584997 0.038277 0.055535998
0.066845998 0.078726001 0.067735001
0.17907999 0.09764 0.040169001
0.070332997 0.050143 0.12963
0.068898998 0.049957 0.12978999
0.12431 0.085754998 0.013543
0.12369 0.085965998 0.013981
0.10685 0.1019 -0.00010719
0.061724 0.057312999 0.11509
0.16760001 0.10567 0.0086631002
0.16869999 0.10525 0.0104
0.076525003 0.039354 0.046100002
0.076663002 0.040745001 0.045540001
0.077243999 0.039914001 0.045083001
0.080063 0.059762001 0.14123
0.078570999 0.059737001 0.14194
0.07925 0.059503 0.14285
0.090588003 0.078245997 0.048579998
0.089686997 0.079236999 0.048574001
0.16209 0.10188 0.0060697999
0.1763 0.11979 0.01401
0.17603 0.11914 0.013935
0.060373001 0.049977999 0.071253002
0.16914999 0.060743999 -0.019286999
0.16869999 0.061342999 -0.019329
0.080862001 0.071079001 0.070367001
0.080587 0.072196998 0.071548998
0.16128001 0.12297 0.048703998
0.16192999 0.12271 0.048216999
0.16078 0.12268 0.047803
0.16422001 0.12082 0.0012945
0.1639 0.12187 0.0024373
0.16383 0.12164 0.0015991
0.16249999 0.097268999 0.0071637998
0.10782 0.088440999 0.051426001
0.10677 0.089068003 0.051910002
0.1866 0.11648 0.041926
0.18533 0.1165 0.043177001
0.13807 0.081331 0.037393
0.13799 0.081170999 0.038323998
