# .PCD v0.7 - Point Cloud Data file format
VERSION 0.7
FIELDS x y z
SIZE 4 4 4
TYPE F F F
COUNT 1 1 1
WIDTH 1511
HEIGHT 1
VIEWPOINT 0 0 0 1 0 0 0
POINTS 1511
DATA ascii
0.3511 0.080784999 0.03844
0.34042001 0.10496 0.031362001
0.32933 0.12185 0.026673
0.35346001 0.076916002 0.040378999
0.32903999 0.12339 0.026319999
0.32971001 0.12162 0.025655
0.33338001 0.11718 0.027594
0.33706999 0.10846 0.032485001
0.33607 0.10917 0.031068999
0.34948 0.087360002 0.037154
0.33329001 0.11722 0.029069999
0.33893001 0.10606 0.032657001
0.34197 0.10292 0.033566002
0.34707999 0.090597004 0.034676
0.34670001 0.090798996 0.035218
0.35132 0.085263997 0.037386
0.35506001 0.077161998 0.039907999
0.33818999 0.10856 0.030804001
0.33869001 0.10695 0.030162999
0.33463001 0.11753 0.027369
0.34733 0.093985997 0.034949001
0.33623999 0.11433 0.027991001
0.33473 0.11489 0.029309001
0.33586001 0.11396 0.027166
0.34088001 0.10514 0.032065999
0.35205999 0.083586 0.038061999
0.35387 0.080634996 0.037447002
0.35436001 0.081765004 0.037859
0.35536 0.075903997 0.038550999
0.35710999 0.081288002 0.039476
0.33518001 0.11693 0.027509
0.33756 0.10973 0.031176999
0.33974999 0.11045 0.029996
0.3545 0.087090001 0.034653001
0.35648999 0.080375001 0.038192
0.35741001 0.077030003 0.038688999
0.35029 0.094981998 0.036121
0.34907001 0.095987 0.035783
0.34885001 0.098067999 0.033293001
0.35732999 0.079641998 0.038222998
0.34619999 0.10006 0.031757999
0.35238001 0.087461002 0.037195999
0.34147 0.10799 0.028797001
0.16584 0.051511001 0.074643999
0.16591001 0.050285 0.076158002
0.18970001 0.0040972 0.089112997
0.16309001 0.055516999 0.072748996
0.16191 0.055440001 0.072926
0.19402 -0.00053562998 0.090544
0.19753 -0.00063909998 0.089697003
0.18828 0.015248 0.084724002
0.19038001 0.015826 0.086025998
0.18788999 0.017246 0.084154002
0.17177001 0.047676001 0.077169999
0.17821001 0.034091 0.079602003
0.17838 0.033457998 0.080038004
0.20342 -5.8643e-05 0.087743998
0.17215 0.066056997 0.067855999
0.17618001 0.062973998 0.068793997
0.21122 0.0081256004 0.085207
0.17895 0.065314002 0.067474
0.19404 0.04152 0.073941
0.18324 0.062066998 0.068736002
0.19976 0.031810999 0.077753
0.20967001 0.015527 0.081482999
0.18404999 0.061336 0.067876004
0.18633001 0.056426998 0.070028998
0.18716 0.052747 0.071061999
0.21179999 0.011468 0.083577
0.1925 0.046224002 0.073311001
0.19175 0.045876998 0.071428001
0.19375999 0.041841999 0.074051
0.19108 0.048299 0.071292996
0.20343 0.032747999 0.076943003
0.20847 0.024886999 0.078808002
0.20438001 0.034081999 0.075878002
0.20856 0.025427001 0.077756003
0.20364 0.032738999 0.076403998
0.18865 0.065562002 0.066312999
0.19733 0.048595 0.071075998
0.19758999 0.048710998 0.071346998
0.19756 0.051507 0.070688002
0.19679999 0.049275 0.070707999
0.19388001 0.055268001 0.069127999
0.20534 0.038495999 0.076081999
0.20611 0.038383 0.072833002
0.19547001 0.053445 0.069000997
0.20383 0.037583999 0.073725
0.20471001 0.036844 0.075136997
0.21129 0.026906 0.077480003
0.20739999 0.033674002 0.075292997
0.20162 0.044720002 0.073619999
0.20423999 0.042169999 0.072189003
0.20313001 0.048257001 0.069660001
0.20197999 0.047086 0.071131997
0.20252 0.046962 0.07017
0.21371999 0.028364999 0.076610997
0.21307001 0.028662 0.075024001
0.19405 0.065835997 0.066049002
0.22606 0.019447001 0.078524001
0.22716001 0.018355999 0.077951998
0.22443999 0.024339 0.076415002
0.23123001 0.021144001 0.077918999
0.20947 0.066555001 0.063486002
0.23653001 0.025658 0.075006001
0.23613 0.025388001 0.075635001
0.2145 0.066955999 0.062371001
0.21495 0.066999003 0.061726
0.21494 0.068012998 0.061884999
0.23938 0.027461 0.073997997
0.24026 0.027376 0.074612997
0.21808 0.071881004 0.059032001
0.21743999 0.07282 0.058814
0.24197 0.026969001 0.072766997
0.22066 0.075776003 0.056603
0.24386001 0.029261 0.071483999
0.22357 0.070890002 0.060380001
0.22563 0.080775999 0.055479001
0.25342 0.031036001 0.070289001
0.23221 0.074542999 0.05796
0.23118 0.075254001 0.058113001
0.23444 0.076217003 0.056035999
0.23864999 0.075814001 0.054280002
0.26098999 0.033131 0.067116998
0.23789001 0.077899002 0.056265999
0.23907 0.077395998 0.055128999
0.27445 0.035475001 0.066096
0.27643001 0.031853002 0.067057997
0.28285 0.039275002 0.063124999
0.25929001 0.083535999 0.049364001
0.26008001 0.083789997 0.050232999
0.28362 0.041510001 0.062930003
0.26222 0.080934003 0.049834002
0.28584999 0.042307001 0.062922999
0.25843999 0.092183001 0.045396999
0.28509 0.043141 0.062360998
0.28413001 0.045322999 0.060993999
0.28525999 0.044764999 0.061994001
0.26925001 0.079379 0.048857
0.2685 0.089308001 0.047426999
0.26692 0.088366002 0.046957001
0.27134001 0.082377002 0.048909999
0.26581001 0.094021 0.046162002
0.29660001 0.046257999 0.059294999
0.29611999 0.046089001 0.058945
0.29524001 0.047006 0.059106
0.27340001 0.089573003 0.046583999
0.27281001 0.090116002 0.046238001
0.27598 0.084181003 0.047189001
0.29701 0.045327999 0.058058001
0.29852 0.045852002 0.059737999
0.27180001 0.095991001 0.043648001
0.27803999 0.087435998 0.045945
0.30342999 0.046312001 0.057879999
0.3048 0.048845001 0.056823999
0.28213999 0.10049 0.040401001
0.2843 0.10322 0.038970001
0.31356999 0.049570002 0.055422999
0.28525001 0.10494 0.039046999
0.31900999 0.051848002 0.053950001
0.29113001 0.10379 0.037785999
0.29345 0.10428 0.038502999
0.29369 0.1048 0.038688
0.29302999 0.10497 0.037239999
0.32793 0.058203001 0.050581999
0.31288001 0.086623996 0.040426001
0.31399 0.086943999 0.042509999
0.32154 0.073774002 0.046183001
0.32091001 0.074510001 0.044298999
0.31501001 0.086749002 0.042091999
0.32106 0.076145001 0.043639999
0.3154 0.087872997 0.04208
0.32218999 0.076697998 0.043706998
0.32181999 0.076082997 0.043062001
0.31829 0.084931001 0.040208001
0.32278001 0.080128998 0.042895999
0.32253999 0.080701999 0.042583998
0.32082 0.082190998 0.042018
0.32932001 0.072590001 0.044870999
0.33592999 0.062297001 0.048895001
0.31031999 0.11378 0.033351999
0.33803001 0.062228002 0.050499
0.34020999 0.063262001 0.048957001
0.31722 0.10197 0.036793999
0.31764001 0.10589 0.034405999
0.33656001 0.071639001 0.044121999
0.31481001 0.11611 0.029362001
0.31753999 0.10783 0.033220001
0.34265 0.071672998 0.043919001
0.31668001 0.11735 0.028811
0.32339001 0.11392 0.030916
0.35032001 0.065590002 0.044208001
0.33423001 0.095345996 0.037135001
0.32218999 0.12105 0.028472001
0.32776999 0.11443 0.029823
0.32670999 0.11418 0.029364999
0.35339999 0.067475997 0.043736
0.34893 0.076938003 0.040890001
0.32444 0.12322 0.027341001
0.34360999 0.087520003 0.036798999
0.32995 0.11896 0.028293001
0.33340001 0.11179 0.030462001
0.32888001 0.1208 0.02823
0.33155999 0.12224 0.026875
0.33972999 0.10524 0.033459999
0.34907001 0.089615002 0.036171
0.33671999 0.11211 0.028674001
0.33544001 0.11867 0.027393
0.33548 0.1166 0.027536999
0.33491999 0.11621 0.027399
0.34132001 0.11083 0.030749001
0.18523 0.020708 0.083883002
0.17911001 0.034281999 0.079504997
0.19945 -0.0010742 0.089652002
0.20832001 0.0076823002 0.086699001
0.19585 0.036171 0.075528003
0.19956 0.032857999 0.077416003
0.19566 0.039567001 0.074106
0.19927 0.031785 0.077675
0.21007 0.012893 0.082428001
0.21151 0.015753999 0.083228998
0.19039001 0.051943 0.070748001
0.20648 0.022759 0.078547001
0.1883 0.066675998 0.067414001
0.20961 0.026505999 0.079493001
0.20905 0.036114998 0.075236998
0.20931999 0.034113001 0.075568996
0.20531 0.041673999 0.072474003
0.19506 0.064581998 0.064173996
0.21522 0.030017 0.076876998
0.21658 0.028611001 0.076660998
0.20056 0.064180002 0.066841997
0.22835 0.016502 0.079940997
0.22458 0.026803 0.075985998
0.23046 0.021916 0.077950001
0.20975 0.065398 0.062336002
0.21822 0.071699001 0.060997002
0.24957 0.030556999 0.072002999
0.25064999 0.029656 0.071085997
0.25082999 0.030554 0.071024001
0.22707 0.080802001 0.055190999
0.23055001 0.073163003 0.058821999
0.25670999 0.031252 0.069211997
0.23662999 0.077614002 0.055892002
0.23797999 0.07683 0.056357998
0.26254001 0.033291999 0.069853999
0.26855001 0.034109998 0.067893997
0.28277001 0.041949 0.062325999
0.26188999 0.083697997 0.049341999
0.28415999 0.042847 0.061836001
0.2823 0.04431 0.062415
0.26087001 0.091747001 0.046997
0.26295 0.093346 0.046624999
0.26427999 0.093616001 0.045914002
0.27392 0.083618999 0.048429001
0.29663 0.046546999 0.058088001
0.27770001 0.088032998 0.048684001
0.28931001 0.10306 0.037700001
0.31527999 0.087889999 0.039856002
0.3229 0.077725999 0.043122999
0.31275001 0.094338998 0.037983
0.31985 0.085979 0.041115999
0.30875 0.11162 0.032637
0.31378999 0.10009 0.037402999
0.31665999 0.098646 0.035509001
0.33158001 0.073252 0.044987999
0.31002 0.11324 0.032179002
0.31237 0.11504 0.031583
0.31206 0.11415 0.031643
0.34358999 0.062389001 0.048291001
0.31876001 0.10919 0.033073999
0.31885001 0.10915 0.033941999
0.31718001 0.11734 0.031691
0.34310001 0.071134001 0.044404998
0.34766001 0.064163998 0.046797
0.31955999 0.11897 0.028635001
0.31742999 0.11789 0.030757001
0.32155001 0.1194 0.028650999
0.32247999 0.12089 0.029254001
0.35462999 0.067557 0.045471001
0.32921001 0.12324 0.025435001
0.33351001 0.11921 0.028055999
0.35631001 0.075535998 0.041117001
0.35618001 0.075878002 0.038791999
0.34762001 0.098599002 0.032845002
0.34147999 0.1107 0.029099001
0.34656 0.098425999 0.033293001
0.34880999 0.097958997 0.032435
0.16662 0.0506 0.077021003
0.16743 0.049674999 0.074809998
0.16297001 0.059985999 0.071535997
0.17107999 0.049011 0.074481003
0.16658001 0.061753001 0.070547
0.16827001 0.063798003 0.070308998
0.20609 0.00358 0.088777997
0.21221 0.0074474998 0.086038999
0.20574 0.019903 0.081220999
0.19462 0.039028998 0.075723
0.20739999 0.018622 0.080136999
0.20750999 0.017004 0.081266999
0.18492 0.057555001 0.067259997
0.18852 0.052551001 0.070223004
0.21115001 0.014167 0.083462
0.19391 0.044891 0.073656
0.20709001 0.022639999 0.080757998
0.2043 0.022569001 0.080894001
0.20558 0.036368001 0.075525999
0.20390999 0.042307999 0.073889002
0.20295 0.045400001 0.074706003
0.2051 0.043120001 0.072549999
0.20022 0.063617997 0.066046
0.22736 0.018529 0.080260001
0.22651 0.020609999 0.077875003
0.22335 0.030226 0.075452
0.22717001 0.023305999 0.077200003
0.23046 0.01925 0.078959003
0.23965999 0.027381999 0.075237997
0.24106 0.027566999 0.074601002
0.21827 0.070200004 0.061271999
0.24222 0.028903 0.074680001
0.21821 0.073977999 0.05971
0.22082999 0.073182002 0.060580999
0.2439 0.028623 0.072789997
0.22021 0.075668 0.057181999
0.22115 0.077597998 0.057502002
0.25224 0.030548999 0.071404003
0.22652 0.076350003 0.0561
0.22572 0.078507997 0.055907998
0.22904 0.078400001 0.056047998
0.25713 0.033082999 0.069797002
0.23413999 0.076949999 0.058099002
0.23277999 0.076970004 0.055966001
0.25854999 0.031075999 0.068663999
0.23605999 0.076015003 0.056534
0.26034999 0.032058001 0.070424996
0.26185 0.033279002 0.069651999
0.23665 0.084085003 0.051973
0.27004999 0.031652998 0.068057999
0.24242 0.085821003 0.051785
0.27498001 0.032912001 0.067231998
0.24895 0.089998998 0.04885
0.28005001 0.037638001 0.064097002
0.28088999 0.041372001 0.063346997
0.28213 0.043641001 0.062483002
0.28242999 0.042927999 0.062054999
0.26172 0.085074998 0.050461002
0.26363 0.080551997 0.050253998
0.25865999 0.091214001 0.047316998
0.28632 0.047375999 0.061510999
0.2841 0.045310002 0.060855001
0.26988 0.081931002 0.050000001
0.27474999 0.084639996 0.048404001
0.29754999 0.046457 0.059606999
0.29565001 0.051699001 0.058777001
0.29686999 0.051509 0.059948001
0.27197 0.096980996 0.045008998
0.31093001 0.049299002 0.056855999
0.32006001 0.054366 0.053346999
0.29635999 0.10643 0.037723001
0.29764 0.10758 0.037266001
0.31189001 0.087288 0.041850999
0.31294 0.088356003 0.042766999
0.30206999 0.11066 0.03607
0.32554999 0.078625999 0.045391001
0.32100001 0.083394997 0.041921999
0.31409001 0.097249001 0.039556
0.33450001 0.061951999 0.052115999
0.33537999 0.071071997 0.047116999
0.34088001 0.064847 0.048122998
0.31909001 0.11919 0.031454999
0.34804001 0.066159002 0.046135001
0.33627999 0.098921001 0.035528
0.35413 0.075664997 0.041515
0.33072001 0.12136 0.02912
0.33634999 0.10969 0.029997
0.33587 0.11262 0.029981
0.35692999 0.077775002 0.03968
0.33638 0.11423 0.028999001
0.34663999 0.099308997 0.033945002
0.19126 0.011698 0.089479998
0.17054 0.048408002 0.076053999
0.18630999 0.023891 0.084941998
0.17578 0.037641998 0.081808999
0.17899001 0.034940001 0.081285998
0.18043999 0.034887999 0.081761003
0.21212 0.0085222004 0.084783003
0.19634999 0.037039999 0.076086998
0.20744 0.020773999 0.080626003
0.18584999 0.057693999 0.069349997
0.20226 0.032290999 0.079287998
0.20344 0.042656999 0.073472001
0.20888001 0.034796 0.075351998
0.20889001 0.036098 0.075704999
0.21427999 0.027491 0.077151
0.20113 0.064888 0.065338001
0.20214 0.064700998 0.066503003
0.22583 0.022244001 0.077864997
0.22564 0.026771 0.076952003
0.23989999 0.026633 0.075214997
0.21927001 0.070952997 0.059393
0.22040001 0.072016001 0.060128
0.21988 0.071947001 0.060054999
0.22065 0.074822001 0.059826002
0.22317 0.073368996 0.05872
0.22398999 0.074501999 0.057514001
0.22202 0.078376003 0.056674
0.22481 0.076829001 0.056976002
0.22315 0.077368997 0.058175001
0.22838999 0.080169 0.056807999
0.23243 0.075696997 0.055808999
0.23404001 0.076568998 0.056304999
0.23715 0.077238999 0.057057999
0.23776001 0.084358998 0.054306999
0.23889001 0.084201999 0.054519001
0.28141001 0.041437998 0.064705998
0.28310999 0.044252999 0.061985001
0.26559001 0.086220004 0.049858999
0.26535001 0.087970003 0.047993001
0.26640999 0.094338998 0.046383001
0.26611 0.093925998 0.045655999
0.26868001 0.092936002 0.046025001
0.29515001 0.047091998 0.058171999
0.29683 0.050623 0.058387998
0.27891999 0.10001 0.043742999
0.28244001 0.10141 0.042578999
0.28321001 0.10259 0.042045001
0.28858 0.10382 0.040045001
0.31944001 0.054453999 0.054182999
0.32076001 0.054489002 0.054090001
0.32243001 0.075699002 0.047063999
0.32521001 0.074454002 0.045929
0.31804001 0.087307997 0.041118
0.32339999 0.077308998 0.045444001
0.32277 0.079768002 0.044243999
0.32043001 0.086143002 0.04101
0.32451999 0.080191001 0.046236001
0.32391 0.081343003 0.043898001
0.32392001 0.083132997 0.042509999
0.34503999 0.070762001 0.044828001
0.34918001 0.066840999 0.045935001
0.35267001 0.066627003 0.046859998
0.35139999 0.065995999 0.046349
0.35466 0.068416998 0.043772001
0.32655001 0.12308 0.027392
0.35615 0.071679004 0.042585999
0.35676 0.071065001 0.042778
0.33691999 0.11397 0.031702001
0.33667001 0.11286 0.029803
0.34167001 0.10627 0.033061001
0.16408999 0.052724 0.075686
0.163 0.052462999 0.076053999
0.19211 -0.0012977 0.090746
0.16308001 0.054444999 0.074642003
0.19536 -0.0012378 0.090278998
0.19183999 0.0062552998 0.088128999
0.19099 0.0085651996 0.08749
0.19164 0.011039 0.088035002
0.19063 0.0093844999 0.086251996
0.18223999 0.029343 0.082718
0.1848 0.024555 0.085653
0.18486001 0.023161 0.085982002
0.18709999 0.023627 0.084335998
0.18869001 0.017046001 0.085565999
0.19113 0.014606 0.086916
0.19066 0.010834 0.087881997
0.17226 0.046454001 0.077581003
0.17359 0.043910999 0.079255998
0.17467999 0.041359 0.078561999
0.17467 0.044489998 0.082929
0.17478 0.043542001 0.081786998
0.17452 0.044248 0.081946999
0.17587 0.040474001 0.081949003
0.17660999 0.038745001 0.081248999
0.17778 0.038229998 0.081583999
0.17732 0.037098002 0.081053004
0.18027 0.033578999 0.085326999
0.18103001 0.031530999 0.083268002
0.18149 0.032602001 0.084972002
0.16942 0.064819001 0.070055
0.16937 0.064544998 0.070216998
0.20563 0.00082527002 0.090332001
0.20535 0.0014266 0.089005999
0.16869 0.065444 0.071154997
0.17342 0.064698003 0.070014
0.20795999 0.0063216998 0.087638997
0.20725 0.0083644995 0.087908
0.20773999 0.0088737002 0.087482996
0.21364 0.0080925003 0.087038003
0.19757 0.035106 0.076890998
0.18731999 0.054544002 0.069156997
0.18852 0.053557001 0.070257001
0.18973 0.051406998 0.071493998
0.19312 0.042059001 0.074977003
0.1904 0.050287001 0.072699003
0.20885 0.024459001 0.079682998
0.19014999 0.062711999 0.067941003
0.19722 0.051125001 0.073155999
0.19255 0.059716001 0.071438998
0.19332001 0.059138 0.070156999
0.20988999 0.028468 0.079530001
0.19633999 0.055098999 0.072439998
0.19625001 0.054680999 0.071369
0.18927 0.067266002 0.067155004
0.20291001 0.044445999 0.073697999
0.20660999 0.042208001 0.074799001
0.20972 0.036814 0.076357998
0.20363 0.048209 0.069123
0.20288 0.047486998 0.072122
0.19408 0.066565 0.067355998
0.21413 0.027629999 0.079332002
0.19509 0.065357 0.065194003
0.20536 0.045639001 0.073297001
0.19863001 0.065148003 0.067754999
0.19825999 0.063442998 0.066543996
0.19911 0.064595997 0.065883003
0.20104 0.064576998 0.067156002
0.21966 0.029033 0.077515997
0.22228 0.02964 0.077781998
0.22397 0.027556 0.077307001
0.20565 0.066403002 0.065384001
0.20651001 0.067074001 0.065619998
0.23425999 0.023770001 0.076918997
0.21325999 0.068411 0.064459004
0.21447 0.068793997 0.062049001
0.2201 0.071795002 0.060153998
0.22224 0.071749002 0.059907999
0.22369 0.071327999 0.060957
0.22037999 0.076699004 0.059450001
0.24532001 0.028756 0.074519001
0.24838001 0.030293999 0.072788
0.22945 0.076897003 0.057387002
0.23046 0.080407999 0.054170001
0.23332 0.075820997 0.056586001
0.25940001 0.032451 0.070784003
0.23686001 0.083896004 0.054443002
0.266 0.033622999 0.069706
0.24263 0.086554997 0.054296002
0.27752 0.034995001 0.067277998
0.27829999 0.035686001 0.067697003
0.28079 0.040761001 0.064764999
0.28082001 0.045178 0.063203998
0.25705001 0.091348 0.047486998
0.28363001 0.044429 0.06329
0.25696 0.089813001 0.048755001
0.28492999 0.045968 0.062116999
0.26611999 0.082268 0.052096002
0.28455999 0.046239 0.061703
0.26333001 0.086465001 0.050131001
0.26578 0.089202002 0.048262
0.26572999 0.089397997 0.048907999
0.26684999 0.088583 0.048248
0.26978001 0.088909 0.046753
0.27415001 0.084604003 0.049307998
0.27151 0.090221003 0.048535001
0.27167001 0.090401001 0.046461001
0.27285001 0.090696 0.046613
0.29898 0.047520999 0.058274999
0.27495 0.090659 0.048209999
0.27430001 0.090497002 0.047166001
0.27472001 0.096138 0.043972999
0.30507001 0.048300002 0.058679
0.30552 0.049524002 0.059939001
0.28062001 0.10093 0.043322999
0.30888 0.048535999 0.058014002
0.28503001 0.10323 0.041537002
0.31231999 0.050057001 0.056823999
0.29987001 0.10893 0.036506999
0.31044 0.090159997 0.042521998
0.31152001 0.092196003 0.042982999
0.31024 0.090865999 0.040995002
0.31047001 0.093735002 0.040484998
0.30562001 0.1107 0.033854
0.30348 0.11183 0.03638
0.31187999 0.096330002 0.040860001
0.33366001 0.061340999 0.052448001
0.33237001 0.059057001 0.051628999
0.33331001 0.061698001 0.049222
0.33568999 0.060518999 0.049006
0.31549999 0.099169001 0.037950002
0.31900999 0.1022 0.037701
0.31657001 0.10668 0.036872
0.31760001 0.10653 0.035441
0.34237999 0.063396998 0.048457
0.33882001 0.072460003 0.046011001
0.34062999 0.071502998 0.046704002
0.34417999 0.072251 0.043984
0.324 0.11366 0.033592001
0.31959999 0.11847 0.030213
0.32106999 0.12073 0.028496999
0.33744001 0.092621997 0.038162999
0.33959001 0.091606997 0.039094001
0.34197 0.09166 0.038929999
0.34940001 0.076490998 0.043193001
0.34896001 0.077035002 0.042553999
0.33568999 0.099408999 0.036444999
0.33737001 0.10186 0.036338001
0.33115 0.11486 0.031222001
0.32835001 0.11416 0.029457999
0.33199999 0.11306 0.031183001
0.33342001 0.11264 0.030379999
0.33416 0.11047 0.031388
0.33429 0.11039 0.031486999
0.33623001 0.10967 0.030920999
0.35843 0.070006996 0.043846998
0.35681 0.069213003 0.044596002
0.33241999 0.12015 0.028999999
0.35141 0.086355001 0.039841998
0.35207999 0.084541999 0.039168999
0.33814999 0.10814 0.032515999
0.34841999 0.090149 0.038240001
0.34185001 0.10272 0.032685999
0.34968999 0.089892998 0.036871001
0.34908 0.089755997 0.038261
0.35381001 0.080522999 0.037999
0.3373 0.11329 0.031454999
0.33908001 0.11147 0.031413
0.34128001 0.10703 0.033197001
0.34768999 0.092836998 0.037138999
0.34639999 0.091839999 0.037241001
0.35631001 0.076498002 0.041758001
0.3373 0.11575 0.029624
0.33454999 0.11945 0.027626
0.35293001 0.087563999 0.036704
0.35782 0.079732999 0.040054001
0.34836999 0.096482001 0.035834
0.35521999 0.087796003 0.038770001
0.34922999 0.098398998 0.034162
0.18973 0.0040591001 0.089373
0.18786 0.0072041 0.088508002
0.16492 0.050512001 0.076148003
0.16485 0.048861999 0.076135002
0.19032 0.0069903 0.08822
0.19142 0.0045242002 0.090402
0.16609 0.0504 0.076926999
0.16542 0.049826 0.077697001
0.16631 0.050122999 0.07502
0.19146 0.0077698999 0.089293003
0.19423001 0.00096366002 0.092010997
0.16700999 0.051522002 0.075503998
0.16760001 0.050303001 0.075866997
0.19516 -0.0021189 0.090389997
0.16294 0.060479999 0.071988001
0.16914999 0.051661 0.074931003
0.16847 0.050248001 0.076475002
0.19868 -5.6934001e-05 0.092207
0.19976 -0.0022819999 0.090373002
0.16429999 0.061912 0.072706997
0.16655 0.063925996 0.069967002
0.20255999 -0.00075991999 0.0902
0.1665 0.063426003 0.070492998
0.20755 0.0019661 0.087878004
0.17224 0.065334 0.070192002
0.20705 0.0045571001 0.087045997
0.17631 0.063666999 0.069779001
0.17586 0.062825002 0.069408998
0.17794999 0.063355997 0.070192002
0.17602 0.064515002 0.070643
0.17761999 0.064049996 0.068813004
0.2115 0.0063089998 0.085863002
0.21099 0.0074796001 0.086042002
0.19498 0.042796999 0.075759001
0.19400001 0.0405 0.07649
0.20465 0.022096001 0.081974
0.20649 0.021057 0.081867002
0.18066999 0.066648997 0.068525001
0.20027 0.029633 0.079902001
0.21244 0.0093056001 0.084459998
0.18335 0.065274999 0.069614999
0.18158001 0.064625002 0.068732999
0.18594 0.057789002 0.070100002
0.20631 0.022617999 0.081597
0.20914 0.014303 0.082546003
0.18835001 0.052285001 0.070919998
0.20130999 0.030381 0.079368003
0.20681 0.02444 0.081519999
0.20922001 0.024857 0.078175001
0.18773 0.065702997 0.068066001
0.18746001 0.066872999 0.068792
0.20915 0.025819 0.079960003
0.19712 0.052218001 0.072826996
0.19953001 0.046797 0.072848998
0.20642 0.032545 0.077621996
0.20612 0.037732001 0.075929999
0.20513999 0.037673999 0.077209003
0.21351001 0.028340001 0.079089999
0.20345999 0.042509999 0.075034
0.19086 0.067670003 0.067031004
0.19216999 0.067065001 0.066235997
0.20435999 0.041347999 0.073687002
0.20776001 0.032485999 0.076018997
0.20917 0.034044001 0.076572999
0.20472001 0.045113999 0.072191
0.20536 0.046220001 0.071887001
0.20514999 0.044034999 0.073735997
0.19444001 0.065035 0.066693
0.19751 0.064269997 0.067333996
0.21735001 0.029268 0.076094002
0.21794 0.030179 0.076793998
0.22877 0.01612 0.081509002
0.22816999 0.018654 0.080496997
0.22861999 0.017855 0.080789
0.22927999 0.015796 0.080347002
0.22629 0.021168999 0.078387
0.20307 0.065652996 0.066593997
0.22871999 0.021482 0.079112001
0.23057 0.017801 0.078867003
0.22409 0.026578 0.076477997
0.20464 0.065454997 0.064773999
0.23057 0.020992 0.078088999
0.23315001 0.025812 0.076343
0.23393001 0.023499001 0.076700002
0.20922001 0.066868 0.062661
0.21172 0.068084002 0.062917002
0.21145 0.067432001 0.063826002
0.21487001 0.068248004 0.063781999
0.21439999 0.069939002 0.062413
0.2167 0.072269 0.061271999
0.21661 0.073046997 0.062153
0.21556 0.074234001 0.061618
0.21427 0.075718999 0.061087999
0.21648 0.076275997 0.060768999
0.21600001 0.075565003 0.060681
0.21574999 0.077178001 0.059808999
0.21754 0.076291002 0.059385002
0.24422 0.028323 0.074424997
0.22293 0.073197 0.057941001
0.22145 0.076286003 0.060270999
0.2246 0.073184997 0.060851999
0.2217 0.077609003 0.059978999
0.22314 0.073890999 0.058244999
0.22262999 0.078041002 0.058040999
0.22549 0.074178003 0.058444999
0.22564 0.074837998 0.060777999
0.22533 0.078266002 0.057601999
0.22724 0.072832003 0.059664
0.22623999 0.071861997 0.059507001
0.22616 0.077891998 0.058224998
0.22426 0.076379001 0.057808999
0.22837999 0.078434996 0.056021001
0.25323001 0.030200001 0.07243
0.23045 0.075539 0.059739999
0.22947 0.076449998 0.058141001
0.22887 0.078904003 0.056460001
0.25455001 0.030536 0.071239002
0.25606 0.031111 0.071268998
0.23066001 0.079062 0.057425
0.23239 0.076629996 0.058233
0.23277999 0.076692998 0.057500001
0.23327 0.079011999 0.056078002
0.23244999 0.080372997 0.056207001
0.23248 0.081079997 0.056030001
0.23521 0.084167004 0.054965001
0.26287001 0.033325002 0.070524
0.23791 0.084214002 0.054933999
0.26491001 0.034173001 0.069248997
0.26701 0.033925001 0.067870997
0.23980001 0.086716004 0.053343002
0.23897 0.086209998 0.054416001
0.26963001 0.034123 0.068314999
0.24034999 0.087307997 0.053699002
0.26942 0.032660998 0.069711
0.27452001 0.032196999 0.069319002
0.24457 0.085314997 0.053176001
0.24629 0.085676998 0.052317001
0.27272999 0.034311 0.069357999
0.27322 0.033206001 0.068681002
0.27632001 0.032106999 0.069755003
0.2476 0.087044001 0.052220002
0.27767 0.034820002 0.067938
0.24758001 0.089406997 0.051723
0.24827 0.089511998 0.051483002
0.27851 0.039218999 0.066871002
0.25091001 0.091417 0.049706001
0.25207999 0.089826003 0.050193001
0.25314999 0.089342996 0.049754001
0.27958 0.039981999 0.064773999
0.28046 0.041896999 0.064000003
0.28051999 0.042185001 0.063344002
0.28125 0.043225002 0.064479001
0.25479001 0.091118 0.050101999
0.25577 0.089818001 0.050087001
0.26179999 0.085331 0.050163001
0.26352999 0.084659003 0.052852001
0.26574999 0.080730997 0.050046999
0.28656 0.047417 0.061686002
0.26005 0.090382002 0.048834998
0.25861001 0.090930998 0.04623
0.28727999 0.047820002 0.060722999
0.26532999 0.087986998 0.048588
0.26765001 0.081662998 0.050244998
0.26675999 0.081266999 0.050590999
0.27002001 0.083430998 0.050375
0.28922999 0.048779 0.060518
0.26495001 0.092757002 0.047215998
0.26471999 0.093294002 0.046131
0.28986001 0.050680999 0.060755
0.28845 0.049975999 0.060005002
0.26628 0.09223 0.047100998
0.27236 0.082096003 0.049252
0.27059999 0.083052002 0.050792001
0.27219 0.082734004 0.050113
0.27287 0.083396003 0.049511999
0.27020001 0.095092997 0.045504
0.26862001 0.094589002 0.047529999
0.27173001 0.082787 0.048492
0.29141 0.051706001 0.059523001
0.27526 0.083965003 0.048563
0.27070001 0.095362 0.045513999
0.27599999 0.086574003 0.048965
0.29383999 0.052673001 0.059826002
0.29398999 0.053024001 0.059007
0.29613 0.049701001 0.059997998
0.27153 0.096658997 0.04544
0.27533001 0.088689998 0.047538001
0.29730999 0.048097 0.059540998
0.29977 0.04775 0.058161002
0.29798999 0.04741 0.057923
0.27471 0.088225998 0.047846001
0.27289 0.097992003 0.043933999
0.30032 0.047325999 0.059585001
0.27535 0.096901998 0.043680999
0.30107 0.047029998 0.059617002
0.27546999 0.098499 0.045327
0.27588001 0.097354002 0.044193
0.27838001 0.099045999 0.043884002
0.27717 0.099967003 0.043574002
0.27821001 0.10215 0.043806002
0.27873001 0.099097997 0.042206001
0.27939999 0.10071 0.043272
0.28027001 0.1018 0.042093001
0.31128001 0.048555002 0.057767998
0.31128001 0.049752001 0.057596002
0.31189001 0.049676999 0.057139002
0.31231001 0.050081 0.058017999
0.28547001 0.10317 0.042592
0.31351 0.050223999 0.056297999
0.28625 0.10322 0.040123999
0.28696001 0.10426 0.041397002
0.28819001 0.10329 0.040842
0.28753 0.10345 0.040867001
0.31748 0.054811999 0.054809999
0.31731001 0.053771999 0.055188
0.29036 0.10334 0.040261
0.29144999 0.10423 0.03909
0.2922 0.10321 0.040683001
0.32262999 0.057057001 0.053863
0.32269999 0.057094999 0.054370001
0.32455999 0.057027001 0.054193001
0.29554999 0.10704 0.038835
0.29750001 0.10685 0.037657999
0.32505 0.057668999 0.052870002
0.29738 0.1083 0.03709
0.29712 0.10913 0.037055001
0.32657 0.057643998 0.053681999
0.32685 0.057743002 0.051777001
0.29817 0.10928 0.036556002
0.32804 0.057470001 0.051575001
0.31115001 0.091691002 0.04211
0.30360001 0.11009 0.036727998
0.31386 0.090457998 0.042417001
0.33124 0.057686001 0.051968999
0.31547999 0.088477001 0.040633999
0.32348001 0.077228002 0.045198001
0.31637001 0.088302001 0.043368001
0.32390001 0.076654002 0.045949001
0.32519999 0.073247999 0.046746999
0.33495 0.061473001 0.049463999
0.32457 0.078162998 0.045784999
0.31966001 0.088462003 0.043159999
0.32451001 0.078174002 0.044651002
0.31933999 0.087017998 0.041136
0.32047999 0.086346999 0.041958001
0.32212001 0.086946003 0.042569999
0.32738 0.074542999 0.046053
0.32791001 0.072976999 0.046645001
0.32080001 0.086456001 0.040794998
0.32523999 0.081708997 0.043572001
0.32126001 0.084491998 0.043961
0.32352999 0.086254001 0.042672001
0.32813999 0.073500998 0.045733001
0.32431 0.084597997 0.043655999
0.30834001 0.11288 0.034000002
0.32325 0.083498999 0.043379001
0.32361001 0.084262997 0.042428002
0.33032 0.073931001 0.044863001
0.33831999 0.062454 0.049044002
0.33076999 0.072104998 0.046262
0.33355001 0.071492001 0.046227999
0.31848001 0.10563 0.035602
0.33401 0.072205998 0.046840001
0.33899 0.071452998 0.046991002
0.34187001 0.071543999 0.046912
0.31788 0.11813 0.030484
0.34527001 0.065964997 0.047768001
0.34728 0.065476999 0.047906
0.31966001 0.11279 0.034802001
0.34277001 0.072126999 0.046029001
0.32111999 0.11341 0.033822
0.31922999 0.11886 0.031828001
0.35012001 0.065765999 0.047580998
0.33713001 0.095317997 0.038091
0.33495 0.093572997 0.037326001
0.33807001 0.091069996 0.038807001
0.32688001 0.11469 0.033034001
0.33741 0.088330999 0.038564999
0.33589 0.095817998 0.038642
0.34920001 0.073748998 0.043694001
0.34924999 0.074964002 0.043354999
0.32664999 0.11464 0.031523999
0.33623999 0.098466001 0.035592001
0.33877 0.090049997 0.037556998
0.32194 0.12149 0.02966
0.32422 0.12175 0.031649001
0.32738 0.11543 0.031727001
0.34003001 0.089497 0.038098998
0.33693001 0.098893002 0.035923
0.32402 0.12307 0.029471001
0.32541001 0.12253 0.028379001
0.34321001 0.090216003 0.037799001
0.34347999 0.089662001 0.037994001
0.35089999 0.076980002 0.041602001
0.34998 0.078791998 0.041949999
0.3558 0.068219997 0.045361999
0.33677 0.10147 0.036637001
0.33791 0.10277 0.034850001
0.33101001 0.11459 0.032754999
0.35620999 0.074469998 0.042385001
0.35047001 0.082634002 0.040183
0.35027999 0.080223002 0.040408
0.35523999 0.074890003 0.041687001
0.34015 0.10224 0.032896999
0.35521999 0.074859999 0.042676002
0.35712999 0.070079997 0.043012999
0.32870001 0.12386 0.028170999
0.32943001 0.12404 0.027353
0.33252001 0.11929 0.027790001
0.33259001 0.11803 0.028281
0.34026 0.10692 0.032896999
0.34788001 0.089084998 0.039388999
0.35168999 0.083423004 0.040442001
0.34715 0.091794997 0.038617998
0.35071999 0.086392 0.038649999
0.32951 0.12376 0.02705
0.33829001 0.10974 0.032798
0.33769 0.10695 0.032938
0.34990999 0.087549999 0.038635001
0.33124 0.125 0.026185
0.3319 0.12255 0.028283
0.33412999 0.11416 0.029890001
0.34202 0.10187 0.034786001
0.34909999 0.088541001 0.038766999
0.35563001 0.079746 0.041262999
0.33932999 0.11159 0.030908
0.34941 0.093937002 0.036623999
0.35396999 0.085775003 0.039349999
0.35536 0.085665002 0.039211001
0.35745999 0.077877998 0.040259998
0.33463001 0.11906 0.028664
0.33735999 0.11713 0.029725
0.33851001 0.11597 0.029384
0.35964999 0.077604003 0.040736999
0.33570001 0.11871 0.029437
0.34068999 0.10688 0.032359
0.34114 0.10886 0.032318
0.35804999 0.080168001 0.039682999
0.34638 0.10267 0.033619002
0.34852001 0.097672001 0.036132999
0.35326001 0.087696999 0.038054001
0.34647 0.10031 0.034448002
0.34812999 0.099737003 0.036396999
0.18912999 0.0052163 0.090778999
0.19103 0.0039518001 0.089817002
0.19269 0.00027128999 0.091530003
0.19062001 0.0070910999 0.090815999
0.16311 0.056660999 0.073546
0.16260999 0.058809999 0.074446
0.16292 0.060697 0.073269002
0.16398001 0.060091998 0.073884003
0.19143 0.0099769998 0.088898003
0.18163 0.029994 0.083832003
0.18163 0.030799 0.082301997
0.18167999 0.029108001 0.083967
0.18871 0.016993999 0.087165996
0.18886 0.016013 0.087064996
0.18909 0.01582 0.088298999
0.17038 0.048836 0.077533998
0.17143001 0.049421001 0.076362997
0.17931999 0.032611001 0.081629999
0.19896001 -0.0020296001 0.091656998
0.20015 -0.0017951 0.091206998
0.16661 0.065976001 0.071241997
0.20355999 -0.00012356001 0.089574002
0.20624 0.0013438 0.089019999
0.17353 0.065667003 0.069583997
0.20823 0.0072555002 0.086223997
0.17753001 0.066798002 0.068673
0.1781 0.066234 0.070018999
0.19673 0.04042 0.075342
0.20022 0.032182001 0.078556001
0.20697001 0.018224001 0.082735002
0.18453 0.058552001 0.070303001
0.18574999 0.057634 0.070735998
0.18719 0.056623001 0.070629001
0.18897 0.051158 0.073127002
0.20818 0.024948999 0.080444999
0.2031 0.031571999 0.078372002
0.1921 0.062538996 0.068825997
0.1996 0.047387 0.073717996
0.20147 0.044822998 0.074744999
0.20448001 0.039076999 0.075286001
0.21378 0.027907001 0.079428002
0.20926 0.036874 0.076122001
0.20636 0.045953002 0.072958998
0.21489 0.028137 0.079383999
0.2191 0.029612999 0.07767
0.22675 0.023597 0.077912003
0.2242 0.030249 0.076673999
0.2041 0.066834003 0.065141998
0.23003 0.018812999 0.079296
0.23117 0.020118 0.078441001
0.2044 0.065862 0.065871
0.23295 0.020362999 0.079277001
0.23208 0.022061 0.079132996
0.23711 0.026079001 0.076071002
0.21913999 0.076072 0.058442999
0.22167 0.074487001 0.059585001
0.22328 0.071188003 0.058959998
0.25005999 0.030309999 0.073053002
0.22565 0.073089004 0.061085001
0.22656 0.074997 0.058538999
0.24958999 0.030413 0.073537
0.24993999 0.030975999 0.073964998
0.25026 0.030304 0.072020002
0.22824 0.075075999 0.058559
0.22705001 0.076015003 0.057573002
0.22859 0.074747004 0.058518
0.23115 0.075416997 0.058883999
0.22874001 0.075585 0.059012
0.2342 0.079585999 0.055730999
0.23305 0.081177004 0.055429
0.23404001 0.080554999 0.055867001
0.26754001 0.036088999 0.069787003
0.27011001 0.031440001 0.069306001
0.27089 0.030863 0.069142997
0.24268 0.085876003 0.054613002
0.27555001 0.033546001 0.067748003
0.27671 0.032855 0.069600999
0.27678001 0.033978 0.067823
0.24744999 0.086592004 0.052328002
0.24829 0.088440999 0.050007999
0.24972001 0.092205003 0.050190002
0.27903 0.037737001 0.065360002
0.27994001 0.038091 0.065178998
0.27926001 0.041267 0.064975001
0.25617999 0.090078004 0.048733
0.25983 0.089918002 0.050106999
0.26247999 0.091101997 0.048390001
0.26405001 0.092712998 0.04603
0.26446 0.091886997 0.047492001
0.26212999 0.091384001 0.048039999
0.26457 0.092348002 0.047545001
0.26701999 0.092988998 0.046934001
0.2692 0.095427997 0.045850001
0.26811999 0.094893001 0.046169002
0.27632001 0.088592999 0.04896
0.29556999 0.050241999 0.058545001
0.27537999 0.099275999 0.045251999
0.30445001 0.047495998 0.059434
0.30842 0.049192 0.057787001
0.32038999 0.054249998 0.054221999
0.29927 0.1076 0.038254999
0.3008 0.10986 0.036164999
0.30142 0.11069 0.036471002
0.31345001 0.090002 0.042084999
0.33074999 0.058026999 0.052739002
0.33212 0.059039 0.053660002
0.31509 0.089459002 0.042341001
0.31652999 0.089322999 0.040672999
0.31751999 0.088949002 0.042789001
0.30498999 0.11122 0.034688
0.31446999 0.098852001 0.038991999
0.32363999 0.081885003 0.042433999
0.32358 0.084253997 0.042915002
0.32543001 0.084467001 0.041205
0.31591001 0.10175 0.037765998
0.31773001 0.10212 0.037616
0.33399999 0.072613001 0.046037
0.31094 0.11463 0.034219999
0.33632001 0.070684999 0.046280999
0.34322 0.064377002 0.04792
0.34397 0.063836001 0.048029002
0.3159 0.11655 0.032855999
0.31477001 0.11656 0.032680999
0.3211 0.11136 0.034084
0.34505001 0.072457999 0.044519
0.34610999 0.072077997 0.045062002
0.34612 0.073789001 0.044264
0.34645 0.073394999 0.044674002
0.33684 0.096902996 0.037016001
0.32967001 0.1157 0.030959001
0.34535 0.090742998 0.037841
0.34509 0.089373998 0.038552001
0.35137999 0.082438 0.039923999
0.32745001 0.12332 0.029634999
0.35526001 0.074933998 0.042665999
0.35672 0.071291998 0.043049999
0.33853999 0.1049 0.033165999
0.35354999 0.082800999 0.039884999
0.34198001 0.10285 0.032807998
0.33375999 0.12145 0.02819
0.34013 0.11001 0.0305
0.35620999 0.080601998 0.039751001
0.34656999 0.10263 0.033826999
0.3495 0.095946997 0.035783999
0.34277999 0.11035 0.03142
0.34667 0.099108003 0.033339001
0.34202 0.10914 0.030105
0.16340999 0.056710999 0.073491998
0.19089 0.0072241998 0.089061998
0.18671 0.02031 0.08574
0.16389 0.062528998 0.071934998
0.17159 0.050767999 0.078697003
0.17591999 0.041756 0.080105998
0.16461 0.062362 0.072848
0.16899 0.066528998 0.070719004
0.19577 0.037625998 0.077101998
0.19955 0.033764001 0.077864997
0.18328001 0.062353998 0.070252001
0.18573999 0.057468999 0.069476999
0.18977 0.050414 0.073974997
0.20938 0.023587 0.078960001
0.1892 0.064669997 0.068139002
0.19667 0.049051002 0.073325001
0.19848 0.047401 0.073342003
0.20065001 0.046806 0.074130997
0.19543999 0.054311 0.071486004
0.20943999 0.034019999 0.077124
0.22889 0.020091999 0.080076002
0.22968 0.015763 0.080378003
0.20508 0.068282001 0.064889997
0.20826 0.068581 0.063542999
0.21345 0.076849997 0.060396999
0.21867999 0.075000003 0.059689
0.22913 0.077797003 0.058465
0.22920001 0.078589 0.058768999
0.25565001 0.031030999 0.071644999
0.25865 0.031399999 0.071263999
0.23611 0.078584999 0.055895001
0.23458999 0.082907997 0.056081001
0.27939001 0.040408999 0.066607997
0.26095 0.089312002 0.04933
0.26001 0.091519997 0.049910001
0.26109999 0.089060001 0.050974
0.26061001 0.089611001 0.049635999
0.26350999 0.090603001 0.048377
0.26627001 0.089648999 0.047979999
0.27101001 0.082441002 0.051734
0.29047999 0.050257001 0.059615001
0.26686999 0.093451999 0.046707999
0.26820001 0.092501998 0.046565998
0.27372 0.083368003 0.048783999
0.27033001 0.096381001 0.046551
0.29442 0.051213 0.060775001
0.30085999 0.048027001 0.059027001
0.29894999 0.049008999 0.059312001
0.30807999 0.048783999 0.059356
0.28544 0.10383 0.040846001
0.31492001 0.052971002 0.05624
0.32771 0.057234999 0.053810999
0.32958999 0.058488 0.052430999
0.31163001 0.089479998 0.043230999
0.31161001 0.093547001 0.040936001
0.32488 0.074262001 0.047268
0.32014 0.087592997 0.042381
0.32648 0.080982998 0.044211
0.3075 0.11208 0.034584001
0.31400001 0.10042 0.038772002
0.31332001 0.099829003 0.037592001
0.32304999 0.08512 0.043106999
0.33142 0.075029001 0.046386
0.31073999 0.11325 0.034936
0.31391001 0.11543 0.031826001
0.31792 0.10937 0.035292
0.31915 0.10777 0.036067002
0.32009 0.11957 0.030649999
0.32539999 0.11424 0.033093002
0.35573 0.074784003 0.043007001
0.35571 0.069519997 0.044236999
0.34639001 0.089183003 0.037985001
0.34132999 0.10353 0.034680001
0.33295 0.12221 0.029025
0.34079 0.10507 0.034074999
0.35098001 0.087783001 0.036823001
0.33438 0.11956 0.027900999
0.16419999 0.053902 0.077058002
0.16373 0.051674999 0.076848
0.17484 0.043083999 0.081095003
0.17400999 0.042778 0.079637997
0.17918999 0.031498 0.082078002
0.20626999 0.0061718002 0.088265002
0.20667 0.022025 0.080614001
0.20813 0.016767999 0.084384002
0.18722001 0.053213 0.071501002
0.2102 0.01355 0.084265001
0.21144 0.011745 0.085078001
0.20478 0.033395 0.077554002
0.20991001 0.025657 0.078273997
0.19126999 0.062011998 0.071193002
0.19159999 0.060245 0.071658999
0.18838 0.061657999 0.069306001
0.19456001 0.057349 0.070363998
0.1943 0.056614 0.072029002
0.19164 0.066238001 0.066963002
0.21817 0.028284 0.076789998
0.22561 0.026345 0.077372
0.23269001 0.022134 0.078458004
0.23562001 0.023715001 0.077756003
0.23537 0.024759 0.077858001
0.21307001 0.068398997 0.061512001
0.23996 0.026966 0.076857999
0.23969001 0.026314 0.076468997
0.24313 0.027605001 0.074904002
0.24177 0.028535999 0.074819997
0.24296001 0.027882 0.075383
0.21752 0.075121999 0.060516
0.24606 0.029359 0.073057003
0.23457 0.078226 0.056823999
0.26374 0.033307001 0.071011998
0.26499999 0.034433 0.069339
0.27844 0.038872998 0.066293001
0.25755 0.090329997 0.049001001
0.26370001 0.089001 0.050200999
0.26096001 0.088706002 0.051332001
0.26159 0.087486997 0.050515998
0.26205999 0.090177 0.049438
0.26953 0.081565998 0.051801
0.26604 0.090369001 0.047911
0.26675999 0.091839001 0.047132999
0.27000999 0.092422999 0.046386998
0.26958001 0.089656003 0.048941001
0.2994 0.10991 0.037032001
0.31075001 0.096959002 0.042899001
0.31246999 0.096015997 0.040116999
0.32574001 0.083016001 0.044727001
0.30875 0.11279 0.033066001
0.31090999 0.11473 0.033147
0.32291999 0.11155 0.033092
0.31911999 0.12067 0.03022
0.32387 0.12108 0.030965
0.35027 0.079295002 0.042211998
0.33998001 0.10495 0.034028001
0.33623999 0.1107 0.030368
0.34057999 0.11025 0.031321999
0.19128001 0.00093908998 0.091245003
0.16372 0.056425001 0.077473
0.16260999 0.061076999 0.075024001
0.18407001 0.026867 0.086349003
0.18268 0.028178001 0.084824003
0.19152001 0.012937 0.088273004
0.19148 0.011332 0.089298002
0.17757 0.039324999 0.081128001
0.17750999 0.037048999 0.083819002
0.20494001 -0.00013792 0.091490999
0.21029 0.0083301999 0.086966999
0.19661 0.036970999 0.077100001
0.19941001 0.035661999 0.077575997
0.20721 0.019897001 0.082773
0.18509001 0.058770001 0.068824999
0.20052999 0.031429999 0.080219999
0.21386001 0.009509 0.086786002
0.19247 0.044473 0.074795999
0.19231001 0.046505 0.075136997
0.19167 0.049791999 0.074519999
0.19244 0.047703002 0.075273998
0.20338 0.031961001 0.079466999
0.19794001 0.049268998 0.075268
0.19024999 0.064081997 0.067671001
0.19273999 0.059324998 0.070547
0.19557001 0.052510001 0.073491998
0.19682001 0.053043999 0.074100003
0.19233 0.059434999 0.070554003
0.19472 0.056720998 0.070542
0.1925 0.068544 0.068120003
0.21058001 0.034864001 0.077058002
0.20991001 0.038982 0.077762999
0.22251999 0.031686001 0.077714004
0.22894999 0.019421 0.079324
0.20471001 0.066292003 0.065361001
0.23356 0.021191999 0.079525001
0.21985 0.074917004 0.062114
0.22104999 0.075019002 0.060362998
0.25591999 0.031521 0.072001003
0.25731 0.031585 0.073963001
0.23137 0.076587997 0.058366001
0.25966001 0.031691998 0.071431004
0.23701 0.078291997 0.057952002
0.23636 0.081707001 0.055587001
0.24129 0.087131999 0.053998001
0.24693 0.087557003 0.052296001
0.27923 0.041666999 0.066141002
0.28097999 0.043864999 0.063663997
0.25891 0.090016998 0.050071001
0.26157001 0.085991003 0.053002
0.26047 0.088950999 0.049972001
0.26980001 0.095388003 0.046303999
0.29176 0.052592002 0.059613001
0.28084999 0.099565998 0.044062
0.31456 0.053029999 0.057870999
0.29098001 0.10467 0.042084001
0.29394001 0.10691 0.040052999
0.29539001 0.10757 0.039714001
0.31086001 0.094439 0.041710999
0.32530999 0.082653001 0.043763001
0.31757 0.10827 0.036548
0.31935999 0.11106 0.035735
0.32247999 0.11414 0.034448002
0.35003 0.068115003 0.047844
0.33599001 0.095486 0.037193999
0.32672 0.11457 0.034134999
0.32780001 0.11642 0.032827999
0.35431999 0.074557997 0.043203998
0.35431001 0.084412001 0.040022999
0.34619999 0.1016 0.034952998
0.34534001 0.10175 0.033505
0.34806001 0.097384997 0.036789998
0.19241001 0.0024290001 0.092616998
0.19687 -0.0012788 0.092546999
0.19148999 0.011196 0.091325998
0.19288 0.0079717999 0.090471998
0.1926 0.010342 0.091265
0.16953 0.051688001 0.076098002
0.18832 0.022877 0.089946002
0.18832999 0.021539999 0.090011001
0.18847001 0.019258 0.089204997
0.19172999 0.015860001 0.090144999
0.18982001 0.01429 0.088110998
0.19104999 0.013198 0.089165002
0.17154001 0.049389001 0.079807997
0.17196 0.049892999 0.079823002
0.17225 0.049307998 0.081352003
0.17942999 0.033961002 0.084417999
0.20194 -0.00067563 0.092912003
0.20634 0.0070445002 0.089184999
0.17981 0.065516002 0.069068998
0.20806 0.018226 0.083911002
0.19769999 0.041345 0.078142002
0.21235 0.010953 0.084371999
0.21309 0.0096894996 0.086217999
0.19209 0.049199998 0.073167004
0.20837 0.023456 0.081895001
0.20615 0.032336 0.078341
0.20547 0.032534 0.078129001
0.20554 0.033330001 0.077822998
0.212 0.026148999 0.082010001
0.20813 0.034552 0.076640002
0.20772 0.033353999 0.079828002
0.20321 0.046025999 0.073783003
0.20532 0.044241 0.074940003
0.19356 0.068084002 0.067851
0.21206 0.034485999 0.077086002
0.21535 0.028976001 0.079635002
0.19682001 0.067519002 0.067358002
0.19859 0.065180004 0.067023002
0.20102 0.065465003 0.066919997
0.22881 0.022957001 0.079140998
0.22724999 0.027327999 0.079438001
0.22706001 0.024557 0.078833997
0.23291001 0.02263 0.079937004
0.23237 0.023172 0.078287996
0.21569 0.069300003 0.062504001
0.23907 0.026169 0.077610001
0.21491 0.071172997 0.063506998
0.21466 0.077597998 0.059666999
0.24363001 0.029242 0.074676
0.2456 0.029394001 0.075172
0.21676999 0.077468999 0.060226999
0.21813001 0.073138997 0.061771002
0.22022 0.072310999 0.061484002
0.22055 0.071989 0.060415
0.22197001 0.075243004 0.060339998
0.22317 0.075804003 0.060293999
0.22391 0.0757 0.060105
0.22509 0.077491 0.059990998
0.22773001 0.078135997 0.059560001
0.25211 0.029983001 0.073366001
0.23316 0.079666004 0.056141
0.23517001 0.077023998 0.057208002
0.23556 0.077638999 0.058084998
0.23463 0.076471999 0.057789002
0.23643 0.078884996 0.058729
0.26319 0.033422999 0.071897998
0.23763999 0.081244998 0.057094999
0.23688 0.079975002 0.057654001
0.2383 0.079323001 0.058283001
0.23709001 0.084462002 0.056504
0.27200001 0.031513002 0.069935001
0.27432999 0.034377001 0.069401003
0.24651 0.088964 0.053863
0.27735001 0.037057001 0.067635998
0.27812999 0.038706001 0.066119999
0.25217 0.090124004 0.051722001
0.25775 0.090448998 0.051171999
0.25975001 0.086434998 0.050730001
0.26082 0.087718002 0.051160999
0.26152 0.087507002 0.050253998
0.26445001 0.082814999 0.051929999
0.26923001 0.093498997 0.047239002
0.27054 0.092316002 0.048861999
0.27566001 0.085747004 0.050765
0.27162999 0.094163999 0.046650998
0.27276 0.093698002 0.045869
0.27254999 0.095427997 0.045230001
0.27397001 0.091016002 0.047685001
0.29754001 0.051605001 0.060237002
0.29989001 0.050466001 0.060040001
0.27443001 0.098573998 0.045201
0.30085999 0.050299 0.060869001
0.30693999 0.050969001 0.060410999
0.31104001 0.049637999 0.061053999
0.32350999 0.056802999 0.053939
0.29778999 0.10794 0.038238999
0.32837999 0.058075 0.052843999
0.32949999 0.059907001 0.052164
0.32867 0.060233999 0.052434001
0.31154001 0.095604002 0.042576
0.31229001 0.098018996 0.042546
0.32653001 0.074611001 0.046879001
0.32418999 0.078438997 0.048011001
0.33627999 0.062746003 0.051493999
0.33333999 0.072407998 0.048760999
0.31878 0.11869 0.032782
0.34720999 0.066583 0.047279999
0.33553001 0.092564002 0.039712999
0.35187 0.066800997 0.047938
0.35526001 0.075386003 0.044105999
0.33950001 0.10526 0.034548
0.34797001 0.088541999 0.038739
0.35155001 0.083274998 0.041365001
0.34020999 0.10548 0.035673
0.34130999 0.10501 0.035367001
0.34119999 0.10596 0.035140999
0.33829999 0.11145 0.032145999
0.33342999 0.12219 0.030081
0.34141999 0.10822 0.032710999
0.35363999 0.088752002 0.039579
0.34257999 0.10869 0.033932999
0.34128001 0.11063 0.032083001
0.33838999 0.11206 0.034054998
0.34784999 0.10111 0.035247002
0.18833999 0.0047328998 0.092076004
0.19017 0.0033551999 0.092348002
0.18855 0.0062883999 0.091742001
0.19220001 0.0036132 0.091811001
0.16319001 0.051008001 0.077205002
0.16591001 0.050007999 0.077405997
0.18856999 0.0056301001 0.091040999
0.19055 0.0064234999 0.091127999
0.19354001 0.0077880998 0.089281
0.16230001 0.060238998 0.075447999
0.19194999 0.0092869001 0.088134997
0.18652999 0.019533999 0.087517999
0.17123 0.050811999 0.081152998
0.17318 0.046170998 0.077529997
0.19907001 -0.0023385 0.092499003
0.16599 0.065310001 0.072959997
0.20419 -0.00082482997 0.092044003
0.20321999 0.00058210001 0.091793999
0.17283 0.066881999 0.070462003
0.17431 0.065048002 0.071206003
0.17723 0.064855002 0.069678001
0.20889001 0.0078670001 0.088196002
0.21076 0.0076072998 0.08715
0.17645 0.066743001 0.070830002
0.17789 0.066362999 0.069669999
0.20607001 0.022072 0.084156998
0.20649 0.019495999 0.082638003
0.20638999 0.022961 0.083466999
0.20824 0.017232999 0.082773998
0.18114001 0.065443002 0.068871997
0.18294001 0.065582 0.070504002
0.18915001 0.054735001 0.072917998
0.19427 0.043954998 0.077546999
0.20088001 0.030797999 0.080513
0.20247 0.032988999 0.080645002
0.20782 0.023870001 0.082152002
0.20922001 0.023378 0.082386002
0.18996 0.063955002 0.068645
0.19745 0.050236002 0.074358001
0.18908 0.065605998 0.069204003
0.189 0.067965001 0.069582999
0.18889 0.069077998 0.068328999
0.19509 0.056506999 0.073951997
0.19665 0.055594999 0.073325001
0.20558 0.039632 0.077205002
0.20476 0.04538 0.077243999
0.20533 0.042305999 0.077022001
0.20344999 0.042792998 0.072948001
0.20306 0.04397 0.074651003
0.20519 0.044114999 0.075838
0.19337 0.066572003 0.067075998
0.21552999 0.026299 0.079249002
0.19783001 0.066096 0.067644
0.21899 0.029103 0.079117
0.22913 0.01547 0.081317
0.22391 0.029539 0.078464001
0.22496 0.030042 0.078033
0.22747999 0.024251999 0.080154002
0.22509 0.027132999 0.077510998
0.23172 0.018429 0.081061997
0.20465 0.066953003 0.066573001
0.20701 0.066652 0.066880003
