# .PCD v0.7 - Point Cloud Data file format
VERSION 0.7
FIELDS x y z
SIZE 4 4 4
TYPE F F F
COUNT 1 1 1
WIDTH 1571
HEIGHT 1
VIEWPOINT 0 0 0 1 0 0 0
POINTS 1571
DATA ascii
-0.053789001 0.12243 0.072586998
-0.053210001 0.12294 0.073314004
0.0083886003 0.092398003 0.13921
0.0071704001 0.092873998 0.13862
-0.018066 0.099284001 0.1204
-0.018936001 0.10058 0.12113
0.0066788001 0.11152 0.075916
-0.014872 0.10125 0.10547
-0.031520002 0.11109 0.11634
-0.03252 0.10977 0.11602
0.039406002 0.10266 0.10582
0.038056999 0.10229 0.1053
0.062927 0.14715999 0.075886004
0.063808002 0.14662001 0.07553
0.062766999 0.14843 0.075025998
-0.010105 0.025291 0.12504999
-0.0090097003 0.025495 0.12419
-0.0099083995 0.10015 0.12439
0.0014158 0.13485 0.081543997
0.032319002 0.13513 0.11311
0.032194 0.13438 0.11267
0.046822999 0.053369999 0.092237003
0.043302 0.12554 0.11086
0.042872999 0.1265 0.11119
0.018635999 0.13866 0.086903997
0.019792 0.14001 0.086685002
0.020021999 0.13874 0.086554997
0.011985 0.12711 0.076394998
0.011239 0.1266 0.075705998
0.0050500999 0.012967 0.11197
0.051715001 0.011409 0.12192
0.051162999 0.012451 0.12128
0.050296001 0.01209 0.1212
0.023883 0.095604002 0.13928001
0.023530001 0.096426003 0.13942
0.053867001 0.14994 0.060029
0.054404002 0.14954001 0.061329
0.054271001 0.012375 0.083552003
0.053009 0.10861 0.098802999
0.0071844999 0.11281 0.092609003
0.011961 0.14397 0.10232
0.015938001 0.14613 0.11861
0.014822 0.14621 0.11908
-0.019703001 0.11422 0.1034
-0.043301001 0.11089 0.085570998
-0.017197 0.15192001 0.085078001
-0.018212 0.15246999 0.086228997
-0.017633 0.15177999 0.086259
0.056598 0.062364999 0.10121
0.021206999 0.15764 0.083769001
0.022963 0.15757 0.084459998
0.033193 0.13056999 0.13476001
0.032871999 0.12953 0.13549
0.038284998 0.055923998 0.095985003
0.038254999 0.057406001 0.096712999
0.039659001 0.056462001 0.095484003
0.0063951002 0.0018298 0.12496
0.0015976999 0.13950001 0.088403001
0.0011698999 0.13947 0.087658003
0.0013148 0.13996001 0.088188
0.005895 0.11829 0.064503998
-0.015314 0.04713 0.10625
0.020843999 0.13354 0.090042002
0.021454001 0.13287 0.091080002
-0.015624 -0.0019646001 0.11634
-0.04208 0.11006 0.084784999
-0.042567998 0.10957 0.084348999
-0.050051998 0.1216 0.099587999
-0.049977001 0.12161 0.098563001
0.055420998 0.12622 0.099743001
0.056299999 0.12555 0.099491999
0.054988001 0.12656 0.098848999
0.0089788996 0.13610999 0.13937999
0.0082777003 0.13416 0.13965
0.058548 0.14586 0.061563
0.033147998 0.090591997 0.13286
0.032198999 0.089128003 0.13316999
0.033879999 0.089359999 0.13327999
-0.0031138 0.012061 0.12458
-0.0024284001 0.012784 0.12304
6.5460998e-05 0.012106 0.12352
0.00055267999 0.010667 0.1242
-0.0067372001 0.10036 0.13145
-0.0071761999 0.099607997 0.13
0.037856001 0.11476 0.13553999
-0.020873999 0.0014655 0.11199
-0.023513 -0.00067745999 0.1102
-0.022372 -0.0024643999 0.10977
-0.051304001 0.12176 0.072388999
-0.051033001 0.12195 0.073233001
-0.050522 0.12 0.073110998
-0.038428001 0.11839 0.10723
-0.0067187999 0.11185 0.13786
-0.041322999 0.10582 0.088294998
-0.052202001 0.11368 0.069177002
-0.052855998 0.11443 0.069023997
-0.020319 0.11177 0.1026
0.00028959999 0.045226999 0.10791
-0.0035629999 0.070390999 0.11344
0.0077982 0.14348 0.12732001
0.0071645998 0.14302 0.12762
0.055190001 0.065701999 0.10192
0.055454001 0.065820999 0.1008
0.054733999 0.065866999 0.10152
0.0027876 0.11389 0.14447001
0.036968 0.080706 0.12758
0.028085999 0.053275 0.14771
0.0021597 0.14293 0.097631998
0.0036702 0.1443 0.096713997
-0.048930001 0.10781 0.10278
-0.049343001 0.10816 0.10245
0.0036249999 0.023798 0.12309
0.0053527998 0.022934999 0.12197
0.0043972 0.023553001 0.12221
0.031468999 0.049258001 0.15068001
-0.053743001 0.12668 0.071612
0.056844 0.15065999 0.062027
-0.011708 0.058878001 0.10735
-0.012781 0.1469 0.090190999
-0.012289 0.14702 0.089864999
-0.028593 0.11063 0.094911002
-0.015821001 0.050124001 0.11856
-0.047848001 0.1219 0.077444002
-0.0076870001 0.13304999 0.10776
-0.008165 0.13301 0.10981
0.018046999 0.15309 0.088100001
0.019575 0.15367 0.087820001
0.064773999 0.13888 0.085767001
0.058099002 0.0083986996 0.099083997
0.058889002 0.0079044998 0.098867998
0.059489001 0.0090549001 0.099976003
0.037269998 0.052202001 0.10386
0.036561001 0.053183999 0.10322
0.050912 0.045772001 0.11222
0.051451001 0.046121001 0.11307
0.051339 0.044489998 0.11357
0.039241999 0.13093001 0.12078
0.039820001 0.13012999 0.11975
0.038525 0.11228 0.095721997
-0.053144999 0.1216 0.064911
0.0093745003 0.11318 0.073348999
-0.034568999 0.10928 0.091732003
0.022365 0.059594002 0.12801
0.022526 0.058924999 0.12621
0.022896999 0.059296001 0.12661
0.012669 0.070340998 0.10168
-0.010401 0.021265 0.12352
-0.011073 0.022441 0.12199
0.05486 0.048525002 0.10909
0.0067453999 0.028534999 0.11495
0.039487999 0.081932001 0.11931
-0.0087796999 0.0030000999 0.098945998
-0.0084226001 0.0030727 0.099471003
0.053819001 0.0093684997 0.091114998
0.053213 0.010567 0.089143001
0.053897999 0.010327 0.089954004
0.050707001 0.01663 0.097276002
0.051538002 0.016838999 0.097127996
0.062143002 0.010341 0.10702
0.062746003 0.011167 0.10691
0.062596001 0.011974 0.10737
0.015895 0.066753998 0.10062
0.017658999 0.066572003 0.10009
0.024625 0.11012 0.14533
0.024845 0.10932 0.14435001
0.0088921003 0.00058743003 0.11708
0.0097164996 0.0013448 0.11672
-0.018107001 0.042103 0.10926
-0.018064 0.042553999 0.10773
-0.017684 0.041333999 0.10843
-0.010759 -0.0001775 0.11855
-0.012701 -0.00091875001 0.11738
0.021455999 0.15385 0.087958999
0.020949 0.15482999 0.086906001
0.020538 0.15387 0.088476002
0.028376 0.13589001 0.10489
0.0015567 0.14137 0.11668
-0.00013574 0.14060999 0.11753
-8.2975998e-07 0.14244001 0.11744
-0.048381001 0.12623 0.076228
-0.049166001 0.12648 0.075363003
-0.048443999 0.12806 0.07643
0.053837001 0.044383999 0.11148
0.054331999 0.043292999 0.113
0.039648999 0.11716 0.13276
0.039483 0.11843 0.13121
0.039583001 0.11831 0.1332
0.011859 0.075268999 0.10149
0.011426 0.075705998 0.10189
0.03991 0.034024 0.10968
-0.014083 0.0065060002 0.10953
-0.013688 0.0076020001 0.10868
0.035186999 0.12622 0.10051
0.036998998 0.12567 0.10005
0.035696 0.12553 0.099846996
-0.042252 0.11826 0.10806
-0.042043 0.11741 0.10763
-0.04146 0.11638 0.10831
-0.011566 -0.0020659999 0.1149
-0.010228 -0.0013219001 0.114
-0.010864 -0.0024478999 0.11464
-0.0051997001 0.12367 0.13627
-0.015602 0.042996 0.11612
-0.01447 0.041602001 0.11717
0.034091 0.074842997 0.12745
0.033682998 0.074776001 0.12764999
0.033666 0.074040003 0.12732001
-0.0014727 0.025338 0.12593
-0.032706998 0.10402 0.11454
-0.045221999 0.10553 0.1003
-0.012863 0.0047741998 0.10426
-0.012537 0.0050885002 0.1058
0.012969 0.1424 0.086800002
0.01265 0.14364 0.085635997
0.012939 0.14202 0.085271001
0.02579 0.13866 0.10292
0.039399002 0.088105999 0.11788
0.039074 0.089378998 0.1176
0.039257001 0.089213997 0.11914
0.025544999 0.087004997 0.10064
0.026001001 0.086249001 0.10071
0.064119004 0.1284 0.072387002
0.064000003 0.12971 0.071441002
0.031915002 0.088593997 0.13342001
-0.017457999 0.15147001 0.085947998
-0.01737 0.15022001 0.087665997
-0.037627 0.12206 0.10236
-0.037167002 0.12218 0.1019
0.046262 0.12596001 0.10157
0.046452999 0.126 0.10218
0.046583999 0.12602 0.10343
0.026277 0.14023 0.115
-0.025883 0.10126 0.1174
-0.047407001 0.12791 0.088820003
-0.048604999 0.12774 0.088682003
-0.047366001 0.12704 0.089312002
0.038640998 0.11965 0.13316999
-0.0050193002 0.13302 0.11756
-0.0049796999 0.13401 0.11601
0.020368 0.14155 0.091752999
0.029596001 0.04555 0.15545
0.034322001 0.060571 0.119
0.033597 0.059982002 0.11897
-0.0048047001 0.11078 0.14022
0.014599 0.11556 0.14704999
0.015935 0.11464 0.14675
0.01612 0.11607 0.14692
0.047237001 0.054701999 0.091934003
0.047944002 0.053417999 0.092269003
0.0061122002 0.12672 0.073063999
0.0060903002 0.12696999 0.072251998
0.057512999 0.028587 0.10402
0.058642 0.028294001 0.10363
0.0014086 0.0078806002 0.12352
0.0016162 0.0079925004 0.12366
0.0011951 0.0075344001 0.12385
0.041676 0.033411 0.1136
-0.011551 0.047332998 0.12249
-0.011994 0.048418 0.12291
-0.012126 0.047834001 0.12139
0.0056524999 0.090437002 0.1338
0.0053062998 0.092120998 0.13514
0.0045687002 0.091297001 0.13401
0.067451 0.013245 0.093918003
-0.032377999 0.10215 0.10124
-0.031473 0.1021 0.10228
0.045334999 0.074403003 0.11653
0.045814998 0.072861001 0.11641
0.0080228997 0.088821001 0.099094003
0.0072547998 0.089798003 0.099583
-0.017885 -0.00034408999 0.10069
-0.019766999 -0.0016545 0.10002
-0.019026 -0.00036255 0.099642001
0.052680001 0.034557 0.097285002
0.051978 0.034548 0.096459001
0.051022001 0.034364998 0.096129
0.065241002 0.1329 0.093911
0.065603003 0.13345 0.093663998
0.056419998 0.14063001 0.086786002
-0.039159 0.10286 0.092436999
-0.038123999 0.1027 0.092408001
-0.038982 0.10277 0.092922002
0.026216 0.12101 0.14454
0.045541 0.029475 0.11836
0.044376001 0.029506 0.1167
0.011588 0.13831 0.13698
0.048059002 0.0099926004 0.098714001
0.047485001 0.0087152999 0.098871998
0.037776999 0.090937003 0.12640999
0.031744 0.081451997 0.10215
0.032574002 0.081707001 0.10314
0.070125997 0.12521 0.086322002
0.069973998 0.12451 0.085276
-0.031246001 0.10773 0.11638
0.038578998 0.079783998 0.12271
0.012176 0.11511 0.081554003
0.012621 0.11428 0.079692997
0.037881002 0.089755997 0.12476
0.037776001 0.090138003 0.12428
0.037508 0.091055997 0.12452
-0.046719 0.13541 0.076122001
-0.047304999 0.13594 0.075962
-0.014204 0.11808 0.10715
-0.014173 0.11879 0.10814
0.024614001 0.062536001 0.10745
-0.054256 0.12263 0.067610003
-0.054717001 0.12151 0.069077998
-0.054460999 0.12184 0.068775997
0.013591 0.14663 0.084184997
0.013073 0.14661001 0.084784999
0.012754 0.14724 0.085625
0.049100999 0.11295 0.11366
0.048976 0.11192 0.11394
-0.034791 0.1163 0.091464996
-0.035213999 0.11578 0.090294003
0.0036553 0.044195998 0.12071
0.0035025999 0.043111999 0.12004
0.028734 0.10256 0.14097001
0.047915 0.069385998 0.12017
0.046811 0.069778003 0.12036
0.04769 0.067616999 0.12012
-0.0057671 0.1331 0.10656
0.040383998 0.11731 0.13143
0.040713999 0.11607 0.13156
0.021787999 0.067827001 0.13228001
0.026904 0.053093001 0.14624
0.035829999 0.13044 0.13243
0.052164 0.0078991996 0.10387
0.053211998 0.0082051 0.10326
0.056099001 0.15251 0.077496
0.05621 0.15273 0.076595001
0.021108 0.11031 0.14576
-0.0085552 0.065233 0.12473
-0.0091203004 0.065425999 0.12409
0.030238001 0.068949997 0.12862
0.029743001 0.068216003 0.12734
0.031672999 0.069489002 0.12786999
0.016546 0.14030001 0.098536
0.020470999 0.10128 0.14354999
0.020807 0.10119 0.14297
0.020355999 0.1001 0.14317
0.0013764 0.038194999 0.11166
0.038396001 0.094218001 0.11978
0.034542002 0.099016003 0.098406002
0.034581002 0.10035 0.097318001
-0.0232 0.001157 0.10942
-0.024532 -0.00040245999 0.10947
0.00054035999 0.047818001 0.10687
0.034024 0.13688 0.12113
0.0016882 0.095683999 0.13674
0.00066209002 0.095469996 0.13685
0.031277999 0.13817 0.12337
0.030115001 0.13860001 0.12378
-0.010184 0.052779 0.10429
0.036460999 0.067298003 0.12486
0.037723999 0.068651997 0.1249
0.021999 0.14146 0.10621
0.023318 0.14086001 0.10539
-0.049105 0.13127001 0.084230997
-0.048815001 0.13073 0.083904997
-0.049897 0.13136999 0.083654001
0.058929 0.015967 0.091132
0.057746999 0.015418 0.092179
0.058612 0.016225999 0.091983996
0.042040002 0.027888 0.11461
0.017453 0.060835 0.12333
0.029689001 0.07632 0.13206001
-0.025697 -0.002562 0.10716
0.021931 0.15635 0.086627997
0.052242 0.13146 0.092676997
0.051828999 0.13019 0.092974
0.052586 0.13135 0.093974002
0.025459001 0.1338 0.13909
0.00061118999 0.11631 0.095298998
0.00027272 0.11691 0.093901001
0.0013542 0.1162 0.093764
-0.0029263999 0.12211 0.13888
0.019254001 0.10394 0.090721004
0.02038 0.10299 0.090457998
-0.0061372002 0.13052 0.094467998
-0.0059691998 0.13146999 0.094339997
0.052455001 0.071434997 0.11308
0.051396001 0.072545998 0.11237
0.051686 0.071993001 0.11293
0.038677 0.066604003 0.095913
-0.026911 0.10406 0.099581003
0.0031600001 0.0374 0.11412
-0.01047 0.044395 0.12156
0.033806 0.11796 0.13961001
0.015999001 0.14555 0.10979
0.017347001 0.14568 0.11015
0.01715 0.14509 0.10953
-0.049127001 0.11136 0.10398
0.060637001 0.01347 0.10851
0.060238 0.014376 0.10964
0.060738999 0.013624 0.1099
0.035613999 0.052455001 0.10581
0.012086 0.062323999 0.12912001
0.011199 0.063236997 0.12962
0.01151 0.061859 0.12939
-0.015616 0.00042289001 0.097865
-0.019324999 0.1044 0.10222
0.0083953002 0.12734 0.14439
0.0074486001 0.12592 0.14437
0.043152001 0.12557 0.10779
0.043083001 0.12627999 0.10679
0.041625999 0.12732001 0.10653
-0.012309 0.049915001 0.12285
0.038408998 0.11134 0.13421001
0.0057717999 0.065738998 0.10595
0.0050977999 0.066885002 0.1057
0.045304999 0.0074749002 0.11836
0.044815999 0.0077984999 0.11705
0.045208 0.0069211 0.11677
0.038940001 0.087742999 0.11775
0.038299002 0.086855002 0.1183
0.057822999 0.11209 0.10031
0.057847001 0.11105 0.10047
0.059122998 0.11533 0.087466002
-0.050894 0.11151 0.085998997
-0.050067 0.11113 0.086630002
0.057390001 0.0075523001 0.11654
0.017677 0.14629 0.11611
0.032377999 0.13421001 0.11284
0.032515999 0.13435 0.11364
-0.015461 0.030688999 0.11571
-0.015689 0.029355999 0.11339
-0.015474 0.029417999 0.11434
0.0038365 0.011334 0.11295
0.026006 0.096270002 0.092467003
-0.018133 0.11542 0.12111
-0.017027 0.11501 0.12147
-0.0081203999 0.11977 0.097919002
-0.0085789002 0.12123 0.097529002
-0.0076815998 0.12104 0.097594999
0.039910998 0.12224 0.13055
0.039958999 0.12297 0.13031
0.056046002 0.10986 0.095707998
0.056345001 0.11158 0.095775999
0.028833 0.055528998 0.12959
0.029863 0.056676 0.12967999
0.029191 0.056038 0.1302
0.041692998 0.10119 0.11502
0.041352 0.10053 0.11458
0.044261001 0.019913999 0.11143
0.044098001 0.01922 0.11148
-0.0081692999 -0.00083834003 0.11233
0.027881 0.051362999 0.15068001
0.026768999 0.050347 0.15026
0.026888 0.050678 0.15209
-0.015924999 0.15234999 0.089714997
-0.016369 0.15263 0.088978
0.034086999 0.13598 0.11949
0.037034001 0.11883 0.13637
0.037059002 0.11892 0.13590001
0.036416002 0.086684003 0.11088
0.036074001 0.085591003 0.10973
0.012232 0.056770999 0.11246
0.012154 0.056898002 0.11206
0.049887002 0.13409001 0.086474001
0.050618 0.13382 0.088201001
0.0010703 0.029315 0.10494
-0.00064286002 0.028142 0.1045
0.061129998 0.12151 0.095577002
0.047332998 0.10695 0.11013
0.046208002 0.10676 0.1101
0.049724001 0.074975997 0.10741
0.047626998 0.033642001 0.11886
0.048136 0.035353001 0.11874
0.054180998 0.11365 0.086897001
-0.015575 0.099533997 0.11913
0.043212999 0.028539 0.10327
0.0015059999 0.086534001 0.12655
0.029274 0.060872 0.10547
0.029995 0.061342001 0.10582
0.028967001 0.061434999 0.10679
-0.045469001 0.11417 0.10895
-0.044909999 0.11358 0.10842
0.030036001 0.050142001 0.15222999
0.030391 0.049926002 0.15311
-0.0096038003 0.030215999 0.12524
-0.010384 0.030513 0.12526999
0.011728 0.14269 0.090249002
0.0129 0.14213 0.089068003
-0.0013024 0.020032 0.12540001
-0.0010351 0.020044999 0.12541001
-0.0011926 0.019709 0.12578
-0.010951 0.033434998 0.10504
-0.011527 0.034343001 0.10483
-0.011306 0.03506 0.10501
0.0015712 0.13104001 0.078809001
0.00041976001 0.13118 0.078240998
0.0011963 0.13123 0.079993002
0.036917001 0.086902998 0.12397
0.037836999 0.087370001 0.12307
0.042031001 0.068582997 0.095953003
0.036596999 0.081809998 0.10469
0.037133999 0.081579998 0.10468
0.042711999 0.11889 0.093911998
-0.034869999 0.10337 0.10798
0.038415 0.11352 0.096046999
-0.057007 0.12022 0.078511
-0.057018999 0.11848 0.078456998
-0.056355 0.11936 0.080291003
0.054441001 0.12135 0.10669
0.01494 0.099636003 0.14323001
0.015778 0.099124998 0.14383
0.052638002 0.010934 0.12093
0.049357999 0.13228001 0.085753001
0.049279999 0.13355 0.085528001
-0.0094657 0.14049 0.093319997
0.033755001 0.10808 0.094902001
0.033753 0.10709 0.094443999
0.033126 0.10851 0.09403
-0.044098001 0.12691 0.086777002
-0.0066692 0.13136999 0.1164
-0.0072373999 0.043007001 0.12177
-0.0074319998 0.043939002 0.12231
0.022265 0.055268999 0.1339
-0.0082863001 0.10132 0.1304
-0.0081062997 0.10102 0.13039
0.0083496999 0.13677 0.082244001
0.010625 0.13784 0.083843
0.01567 0.1284 0.081065997
0.017393 0.12773 0.081018001
0.0016816 0.14416 0.10907
-0.0001603 0.14309999 0.10793
-0.0068593998 0.12835 0.10262
0.013032 0.098231003 0.093933001
-0.050857 0.12178 0.065462001
0.012996 0.097098999 0.14331999
0.012622 0.098373003 0.14261
0.068682998 0.13504 0.083681002
0.069559999 0.13473 0.082616001
0.057122 0.12234 0.074525997
-0.043086998 0.1053 0.087879002
0.029495001 0.13478 0.10301
0.02846 0.13569 0.10403
0.0074211 -0.00044646001 0.12397
0.0084266001 0.00063783 0.12451
0.0078980001 6.0896e-05 0.12509
0.053851999 0.12782 0.078569002
0.053419001 0.12886 0.079429999
0.053461999 0.12914 0.078437999
-0.014775 0.12099 0.1202
-0.014661 0.12054 0.11989
0.056979999 0.058127999 0.099252
-0.0041067 0.11382 0.14047
-0.0035881 0.11416 0.14094999
-0.03954 0.10733 0.086590998
-0.039969001 0.10783 0.086296
-0.011391 0.12096 0.13093001
0.055915002 0.035962999 0.11762
0.056418002 0.036205001 0.11802
0.055087 0.036628999 0.11842
-0.015803 0.031675 0.11523
0.014534 0.142 0.13365
0.015376 0.14155 0.13389
0.024459001 0.054899 0.13977
0.024274999 0.053698 0.14037
0.025053 0.054710001 0.14086001
0.033312999 0.1026 0.13798
0.051070001 0.15527999 0.064622998
0.011712 0.11755 0.069558002
0.012463 0.11866 0.070354
0.012568 0.11787 0.070896998
-0.031018 0.10233 0.10336
-0.031564999 0.10204 0.10514
-0.031984001 0.10201 0.10439
-0.015152 -0.00053287001 0.11678
-0.014201 -0.00045739001 0.11761
0.019384 0.14117999 0.087131999
0.019655 0.13992 0.087387003
0.053847998 0.10926 0.10308
0.052875001 0.10855 0.10333
-0.0069891 0.12763 0.099799998
-0.0065883002 0.12715 0.098940998
-0.0055199 0.12791 0.1001
0.052696001 0.0096832998 0.091153003
0.0048985002 0.12338 0.064433999
0.028014001 0.088939004 0.13546
0.028519999 0.088329002 0.1366
0.033233002 0.12419 0.13897
0.033233002 0.1251 0.13882001
0.031551 0.12434 0.13940001
0.0017258 0.060068998 0.13131
-0.034460999 0.12012 0.091021001
-0.034242 0.12139 0.092143998
-0.053010002 0.11116 0.084036998
0.054375 0.11569 0.081551
0.054365002 0.11553 0.079972997
0.055018 0.11601 0.080187
-0.040022999 0.10382 0.090395004
0.014102 0.062907003 0.1073
0.013413 0.062254 0.10809
0.028607 0.059009001 0.13639
0.027373999 0.058857001 0.13708
-0.010651 0.12511 0.12026
-0.010491 0.12630001 0.11905
0.041664001 0.10289 0.11391
-0.015778 0.11605 0.10589
-0.016102999 0.11588 0.10559
-0.003518 0.13641 0.11312
-0.0036090999 0.13775 0.1129
-0.0041128998 0.13586999 0.11179
0.0046174 0.090466 0.097860001
0.0059218998 0.090503998 0.098491997
0.0064019999 0.090778999 0.098816
0.0061832001 0.060766999 0.10502
0.0069239 0.060561001 0.10661
0.039425001 0.1067 0.099777997
0.0054863002 0.11564 0.067904003
0.0051130001 0.11565 0.067323998
-0.051787999 0.13255 0.079155996
0.060749002 0.12885 0.095587999
0.059062 0.12785999 0.095767997
0.059464 0.1278 0.096139997
0.0018608 0.080821 0.11369
0.001884 0.080693997 0.11485
0.0013259 0.081845999 0.11487
-0.027488001 0.10502 0.099712998
-0.026612001 0.1065 0.098330997
-0.026854999 0.10612 0.099210002
-0.054274 0.12236 0.067498997
0.045138001 0.020037999 0.11606
0.016744999 0.12449 0.080472
0.011264 0.057817999 0.11047
0.054595001 0.14695001 0.068892002
0.050693002 0.11865 0.11298
0.050163999 0.11784 0.11318
-0.013284 0.11414 0.10221
0.019028001 0.15253 0.081975996
-0.011053 0.10086 0.12389
-0.034977999 0.12153 0.10408
-0.035399001 0.12137 0.10264
0.058579002 0.035693999 0.10066
0.057808001 0.035721 0.099650003
0.057500001 0.037572999 0.098903
0.057034999 0.13298 0.072215997
0.056731999 0.13285001 0.073114999
0.04899 0.12445 0.10785
0.056704 0.029211 0.10193
-0.055624001 0.11233 0.082317002
-0.021204 0.10628 0.10036
0.032063 0.055319 0.13601001
0.031486001 0.055950999 0.13708
0.014105 0.068914004 0.13108
0.013854 0.067616999 0.13151
-0.014648 0.11885 0.1133
-0.01592 0.11831 0.11224
0.014363 0.14201 0.10169
0.02104 0.075076997 0.098977998
0.02018 0.074483998 0.098329999
0.056363001 0.12887999 0.096283004
0.057216998 0.12767 0.097107999
0.058492001 0.12797 0.096593998
-0.014185 0.14916 0.088142
-0.013717 0.14949 0.086613998
-0.012821 0.14876001 0.087489001
-0.025653001 0.10092 0.11645
0.054985002 0.012136 0.089548998
0.058876999 0.13918 0.068309002
0.057679001 0.1389 0.069558002
0.0011975 0.036858 0.12054
0.00052544998 0.037092 0.11976
-0.017445 0.039531998 0.10711
-0.016509 0.038116001 0.11214
0.0086019998 0.14322001 0.1005
0.0060963999 0.14335001 0.10009
0.0073063001 0.14402001 0.10049
-0.051961999 0.12909999 0.071055003
-0.052448001 0.12962 0.072613999
-0.050967 0.12910999 0.071915999
0.022348 0.081019998 0.13545001
0.024298999 0.081145003 0.13496999
0.058463998 0.017447 0.10984
-0.012038 0.060417999 0.12424
-0.012402 0.05971 0.12384
-0.011651 0.060297001 0.12542
0.025947001 0.094094999 0.093571998
-0.010274 0.038187999 0.12044
-0.0093532 0.040205002 0.12029
0.030471001 0.054267999 0.13135
0.029577 0.053661 0.1305
0.045552 0.11178 0.11654
0.044514999 0.1112 0.11628
0.064092003 0.14506 0.074610002
0.065075003 0.14339 0.074399002
0.017720001 0.075397998 0.097686
0.00062244001 0.078524999 0.12291
0.041772 0.067171998 0.095164999
0.019254999 0.14993 0.084135003
0.017829999 0.14881 0.083763003
0.018913001 0.15095 0.084205002
-0.0050583002 0.045214999 0.12443
-0.0068148999 0.044876002 0.1242
-0.0048874002 0.043862998 0.12347
0.039269999 0.082569003 0.11716
0.039462999 0.082598001 0.11641
0.0089207999 0.14132001 0.087738998
0.048576999 0.074690998 0.1053
0.047492001 0.075278997 0.10335
0.048044 0.075301997 0.10492
0.0024508999 0.041917 0.11287
0.0025112 0.041437998 0.11331
0.0015886 0.043379001 0.11204
0.0018845 0.030857 0.10523
0.00058792997 0.029921999 0.10471
-5.4352e-05 0.030653 0.10392
-0.0047515002 0.070082001 0.1173
-0.0043043001 0.071414001 0.11771
0.059044 0.11705 0.10095
0.059700001 0.11785 0.10202
0.052579999 0.15216 0.064429998
0.025106 0.078763001 0.099749997
0.034113001 0.074793003 0.12699001
0.034603 0.074054003 0.12585001
0.018641001 0.091902003 0.13775
-0.013992 0.059627999 0.11627
0.013766 0.14889 0.083761998
0.013636 0.14909001 0.084108002
-0.015765 0.0059822001 0.11325
-0.017014001 0.0055598002 0.11275
0.027586 0.066896997 0.13168
0.021542 0.1007 0.1408
0.02021 0.099822 0.14026999
0.022473 0.10066 0.14050999
0.022647999 0.11706 0.092685997
0.00030044999 0.085385002 0.11293
0.00069114001 0.085344002 0.11328
0.041345999 0.052209999 0.095852003
0.041255999 0.052389 0.095457003
0.056515001 0.11365 0.090649001
0.057197001 0.11425 0.090681002
0.057859998 0.11375 0.09104
0.0043819998 0.098654002 0.14083999
0.0041947998 0.098899998 0.14042
-4.3020002e-05 0.14157 0.10469
-0.011281 -0.0015711 0.11817
-0.011177 -0.0027743001 0.11752
-0.053079002 0.11315 0.086654
0.0076143001 0.047052 0.12226
0.030885 0.13663 0.11459
0.031179 0.13790999 0.11455
-0.022242 0.11365 0.10204
-0.022531999 0.11412 0.10183
0.052820001 0.12921 0.094986998
0.053243998 0.12988999 0.094939999
0.0022521999 0.13009 0.076610997
0.055238001 0.11405 0.085956
-0.050292999 0.13034999 0.069848999
-0.050182 0.13038 0.068728998
0.036084998 0.095637001 0.10493
0.035625 0.095665999 0.10397
0.001351 0.12207 0.066806003
0.00097167998 0.12272 0.067698002
0.067042999 0.13713001 0.081566997
0.067390002 0.13841 0.082640998
0.067771003 0.13801 0.082482003
-0.0073992 2.7960999e-05 0.10624
-0.0080153998 -0.00025193 0.10685
0.030936999 0.096564002 0.1364
-0.0053492002 0.00069125002 0.12106
-0.0022586 0.092600003 0.10223
0.039703999 0.035881002 0.10434
0.039820001 0.033967 0.10415
0.041650999 0.10465 0.11397
0.042259999 0.10585 0.11389
0.041641999 0.10616 0.11513
0.056791 0.0090693999 0.096184999
0.055108 0.0088756001 0.096078999
0.055833999 0.0085351001 0.095960997
-0.036403 0.10681 0.090116002
0.062596999 0.0087211998 0.098761
0.0059841 0.075869001 0.13029
0.0059088999 0.075612999 0.13
-0.0020679 0.11946 0.077538997
-0.0021156 0.12062 0.078897998
0.055904999 0.033333998 0.11907
0.0019083 0.055178002 0.13034
0.068786003 0.13091999 0.078621
0.069297001 0.13026001 0.078125998
0.069041997 0.13119 0.077303
-0.0037610999 0.090653002 0.11504
0.00055323 0.11659 0.082585998
-0.048909001 0.12782 0.074679002
-0.049199998 0.1269 0.074042
0.052719999 0.070173003 0.10283
0.0054231002 0.14077 0.13052
0.036251999 0.13003001 0.13079
-0.0093590003 0.13125999 0.1097
-0.0092297997 0.13004 0.10931
-0.0089156004 0.13022999 0.10948
0.058497 0.14026999 0.066226996
0.0051225 0.11735 0.065172002
0.0049586999 0.11838 0.063464999
0.0046196999 0.11016 0.096538
0.036247 0.094025999 0.12540001
0.037496001 0.094001003 0.12379
-4.7817998e-06 0.076665998 0.11374
-0.00013515 0.076388001 0.11267
-0.017227 0.043051999 0.10484
0.059423 0.015466 0.089544997
0.058713 0.014056 0.089231998
0.057939999 0.014531 0.089140996
0.0037899001 0.1026 0.093183003
0.0033476001 0.10334 0.093475997
0.045111001 0.0059273001 0.11464
0.046348002 0.0062946999 0.11408
0.047591999 0.1079 0.094971001
0.049407002 0.10819 0.094278999
0.050907999 0.054949 0.11487
0.050887 0.054691002 0.11453
0.062761001 0.11674 0.086681001
0.063056 0.11684 0.086122997
0.063280001 0.11715 0.087429002
-0.0073989001 0.032581002 0.12609001
-0.0073473002 0.032729998 0.12503999
0.014771 0.059369002 0.11099
0.027156999 0.079752997 0.1004
0.025903 0.079127997 0.10045
0.026725 0.080490001 0.10005
0.031125 0.051314 0.14766
-0.012648 0.049217001 0.12189
0.030942 0.1128 0.093700998
0.032318 0.11216 0.093901001
0.034104001 0.083016001 0.10497
0.032827999 0.084802002 0.10472
0.033968002 0.085049003 0.10546
-0.029321 0.10403 0.097641997
0.0040479 0.079475001 0.12892
0.0043334002 0.078047 0.12991001
0.0067472002 0.018437 0.11314
0.0072722002 0.018508 0.11343
0.0073421001 0.062435001 0.13046999
0.0082983002 0.061005 0.13049001
-0.0056174002 0.13026001 0.10097
-0.0061214999 0.12969001 0.10182
-0.0056022 0.13053 0.10099
-0.014523 0.028821999 0.10769
-0.013764 0.029159 0.10831
-0.014718 0.030006001 0.10888
0.016084 0.12738 0.080567002
0.048983999 0.12948 0.089492001
-0.028743999 0.11839 0.10069
-0.027817 0.11686 0.10153
0.053061001 0.0082353996 0.10127
0.065761 0.11903 0.084368996
0.041632999 0.042431999 0.10709
0.04129 0.043150999 0.10629
0.041418999 0.043008 0.10573
0.045816001 0.044259001 0.095288999
-0.0055896002 0.095422 0.1027
-0.0050344998 0.094846003 0.10408
-0.0038399999 0.10826 0.1382
-0.0052796002 0.13204999 0.090889998
-0.0025782001 0.14019001 0.097429
0.030160001 0.12996 0.10234
0.028891999 0.13141 0.10291
0.030455999 0.13085 0.10374
0.0034254 0.11683 0.066719003
0.030791 0.080153003 0.10145
0.053263001 0.15227 0.071621001
0.049160998 0.0098809004 0.12228
0.050698001 0.0084809996 0.12245
0.016269 0.085727997 0.13693
0.017166 0.085856996 0.13705
0.017464001 0.086218998 0.13722999
0.021723 0.14227 0.10757
0.020252001 0.14239 0.10695
0.020445 0.14283 0.10763
0.023703 0.1129 0.14574
-0.010109 0.059502002 0.10622
-0.010478 0.058956999 0.10738
0.038922999 0.049642999 0.10344
0.041110002 0.10241 0.12294
0.021996001 0.089606002 0.1374
-0.011065 0.12531 0.11012
-0.010309 0.12521 0.10941
-0.011342 0.12454 0.10888
0.038376998 0.095501997 0.11162
0.036924001 0.093791999 0.11148
0.01843 0.12867001 0.082082003
0.017213 0.12872 0.081786998
-0.0091415998 0.14132001 0.093924001
-0.014215 0.11273 0.10347
-0.015538 0.11401 0.10443
-0.015538 0.050833002 0.1188
0.040433001 0.04772 0.10017
0.012878 0.11506 0.089461997
0.014422 0.11561 0.089849003
0.049451001 0.12986 0.086227998
0.048416998 0.12921 0.086741
0.047982 0.13036001 0.087259002
0.052248001 0.15287 0.063996002
0.051773001 0.15229 0.064328
0.052119002 0.15369 0.063744999
-0.016427999 0.0053376001 0.10832
-0.0048647001 0.048262998 0.12642001
-0.0035598001 0.013379 0.10886
0.067906998 0.13237 0.093494996
0.066969 0.13275 0.094420999
0.052090999 0.012218 0.085646003
0.051573999 0.01236 0.085836999
0.051686998 0.011977 0.085307002
0.050840002 0.13772 0.082873002
-0.035913002 0.11228 0.11036
-0.036933001 0.11181 0.11005
-0.035617001 0.11156 0.11061
-0.036161002 0.11315 0.089510001
-0.037147999 0.1139 0.089045003
0.041026998 0.11935 0.12955
0.040555 0.1189 0.12952
-0.0041979002 0.093502998 0.12938
-0.0046899002 0.092964001 0.12774999
-0.051631 0.11855 0.10129
-0.051546 0.11841 0.099950001
-0.052062001 0.11809 0.1005
0.028581001 0.091403 0.10021
0.052092999 0.0084375003 0.10455
0.050604999 0.0073742 0.10367
0.0072256001 0.016277 0.11588
0.0067011002 0.016173 0.11683
0.025936 0.12564 0.093177997
-0.054792002 0.11969 0.084642999
-0.0043652002 0.015812 0.12429
-0.0039786999 0.058520999 0.13059001
-0.0024792 0.058444999 0.13145
0.0080949999 0.11579 0.069103003
0.060628001 0.033342998 0.10894
0.060837999 0.034100998 0.1096
0.06146 0.035089001 0.1099
0.049143001 0.13 0.089837
0.049685001 0.13166 0.089928001
-0.021599 0.11166 0.12147
0.018479001 0.060550999 0.12279
0.01918 0.061468001 0.12192
0.018378999 0.061386999 0.1228
0.018748 0.11418 0.14622
0.019253001 0.1174 0.14608
0.018935001 0.11618 0.14663
0.056304999 0.11286 0.091029003
0.021426 0.11052 0.14465
0.059170999 0.022324 0.11552
0.058184002 0.02159 0.11592
-0.012367 0.099575996 0.11019
-0.012198 0.098977 0.11269
-0.013445 0.099169999 0.11081
0.038552999 0.096312001 0.11527
0.038456 0.095385 0.11607
0.015349 0.087191999 0.096078999
0.015423 0.08523 0.097197004
0.050825 0.13108 0.091696002
0.050340001 0.13016 0.091668002
-0.013114 0.040440001 0.11759
-0.013396 0.042520002 0.11734
0.0049140002 0.02699 0.10837
0.041234002 0.12319 0.12382
0.041549001 0.12269 0.12375
-0.0026088001 0.006639 0.12374
-0.0016296 0.0071022999 0.12341
0.00029028 0.071296997 0.10845
0.00029701999 0.072054997 0.10836
0.017415 0.15344 0.086386003
0.0166 0.15386 0.086593002
0.017394001 0.15384001 0.087531
-0.011992 0.11535 0.10182
-0.011919 0.11693 0.10115
0.0067526 0.0068406002 0.12194
0.0064953002 0.10886 0.14501999
0.0073982002 0.10866 0.14544
0.060915999 0.01425 0.090622999
0.061799001 0.012514 0.089855999
0.042160001 0.12639 0.10773
-0.052694 0.12496 0.072172001
-0.052609999 0.12523 0.071223997
-0.051938999 0.12503 0.071209997
0.0038606999 0.042885002 0.11812
0.0030085 0.042509999 0.11716
0.0041168001 0.042383999 0.1171
-0.011324 0.024541 0.12279
-0.017944001 0.0041769999 0.10188
-0.019711001 0.0040328 0.10292
0.04115 0.097992003 0.12389
-0.0057812999 0.024281001 0.10621
-0.0041565001 0.024422999 0.10541
0.039262 0.096960001 0.12612
0.039170999 0.096715003 0.12448
0.040775999 0.097677 0.12542
0.0068012001 0.10509 0.14493001
0.0053965999 0.10594 0.14497
0.0051409001 0.10569 0.14413001
0.032304 0.12552001 0.13844
-0.032235 0.10416 0.093835004
-0.033402 0.1038 0.094059996
0.00074217998 0.044544999 0.10871
0.055077001 0.14588 0.067401998
-0.0052457 0.13134 0.12937
0.061097998 0.01341 0.092716999
0.061028998 0.013385 0.092713997
0.051566001 0.067047 0.11659
0.051656 0.067596003 0.1169
0.050501999 0.066711001 0.11827
-0.012508 0.11098 0.12992001
-0.011497 0.10692 0.1267
0.054391999 0.12977999 0.077520996
0.055328 0.12983 0.076869003
0.030336 0.13801 0.12249
0.014255 0.1143 0.091224
0.018823 0.062591001 0.1157
0.020662 0.062229 0.11606
0.020346999 0.14038999 0.10193
0.016295999 0.14274999 0.12883
0.014779 0.14356001 0.1304
0.016384 0.14372 0.12939
-0.0045667002 0.099101 0.13398001
-0.0040384 0.097442999 0.13334
-0.0031407 0.098729998 0.13425
-0.00085473002 0.088804998 0.1099
-9.4474002e-05 0.088781998 0.11151
0.0046325 0.032724999 0.1199
0.0061483001 0.072283 0.10566
0.0052511999 0.070952997 0.105
0.0050694998 0.071837999 0.10615
0.049180001 0.10702 0.10762
0.0067620999 0.0041209999 0.11432
0.057378002 0.044902001 0.097663999
0.064658001 0.1398 0.078962997
-0.030422 0.11737 0.10591
-0.029170999 0.11666 0.10712
-0.011336 0.1129 0.13153
0.020462001 0.13088 0.14259
0.020713 0.13267 0.14206
0.01952 0.076848999 0.13468
-0.01226 0.060571998 0.12329
0.015019 0.14544 0.10626
0.023668 0.098746002 0.13984001
0.023014 0.10014 0.13923
0.022418 0.098989002 0.13992999
-0.0034628999 0.14782999 0.090407997
0.010275 0.146 0.11883
0.048981 0.0046084002 0.11954
0.038628001 0.10169 0.10662
0.038878001 0.10134 0.10722
0.038428001 0.10084 0.10609
0.06213 0.14789 0.078013003
0.06267 0.14749999 0.076793998
0.061707001 0.14804 0.076461002
-0.010641 -0.001085 0.10694
0.028409 0.079765998 0.10092
0.022763999 0.13499001 0.097226001
0.0071927998 0.14346001 0.10101
0.012822 0.14611 0.11996
0.012434 0.14641 0.11864
0.011615 0.14597 0.11835
-0.0015936 0.11731 0.071171999
-6.4630003e-05 0.11723 0.070603997
-0.000463 0.11746 0.072010003
-0.0045496998 -0.00058178999 0.10951
-0.018658999 0.0025239999 0.11317
-0.020269999 0.0026248 0.11166
-0.019422 0.0015967001 0.11309
0.0031870999 0.12757 0.14185999
-0.025630999 -0.0014760999 0.10816
-0.025526 -0.001251 0.10713
-0.024360999 -0.0017133 0.10729
0.061847001 0.13169 0.095022999
-0.0016561 0.13036001 0.080146
-0.002238 0.1301 0.080058001
0.059411 0.11515 0.089011997
-0.0098107001 0.14218999 0.091995999
0.048597001 0.064473003 0.094026998
0.047956999 0.063130997 0.094457
0.046417002 0.064782999 0.094676003
0.035872001 0.092914999 0.107
0.047152001 0.12488 0.097815
0.046799 0.12467 0.096791998
0.046126999 0.1251 0.097020999
0.048390001 0.042220999 0.095473997
0.048911002 0.041756999 0.094919004
0.00041902001 0.11098 0.14341
0.00064783997 0.10977 0.14345001
0.014775 0.11638 0.088606
0.013936 0.11603 0.087656997
0.015198 0.11669 0.090019003
0.03373 0.095004998 0.13063
0.038327001 0.13104001 0.11558
0.039825998 0.12989999 0.11457
0.038364999 0.13043 0.11523
-0.016225999 0.04823 0.11037
-0.0162 0.048411001 0.10954
-0.016319999 0.047226999 0.10942
0.017578 0.14329 0.092260003
0.054526001 0.033674002 0.11831
0.053381 0.034097001 0.1193
0.053897999 0.032736 0.11916
0.0022893001 0.02032 0.12464
0.0027497001 0.021496 0.12379
-0.012176 0.063061997 0.1171
-0.015967 0.045065999 0.1129
-0.0019695 0.088831 0.10945
-0.00074002001 0.088964 0.10943
0.00014495 0.14382 0.090421997
-0.045198001 0.12848 0.083049998
-0.044677 0.12826 0.084765002
-0.017199 0.041910999 0.10534
-0.0045277998 0.13766 0.10804
0.050253 0.011943 0.089584999
0.050840002 0.011894 0.087470002
0.050932001 0.010773 0.089050002
0.0064312001 0.11922 0.063247003
0.0037404001 0.082386002 0.12983
0.0030386001 0.080913998 0.13021
-0.018244 0.0034054001 0.11171
0.026806001 0.13933 0.115
0.027547 0.13926999 0.11508
0.010627 0.057753999 0.11046
0.062560998 0.116 0.085703
0.061918002 0.11607 0.087254003
0.060857002 0.11636 0.085915998
0.0053742998 0.10917 0.096525997
0.0061277002 0.10909 0.096933998
0.0060057002 0.10757 0.095757
0.059728 0.039857 0.10903
0.059797999 0.039620999 0.10697
0.059457999 0.040707 0.10769
-0.013587 0.025770999 0.11748
-0.012949 0.025231 0.11723
0.029936001 0.085562997 0.13361
0.029317001 0.084778003 0.13406
0.034928001 0.10283 0.1365
0.060610998 0.01375 0.087205999
0.060038999 0.014052 0.087141
0.048475999 0.041143 0.11703
0.0070259999 0.14345001 0.091844998
-0.037680998 0.12179 0.10318
0.045472 0.039188001 0.11678
0.065474004 0.12705 0.073873997
-0.045187 0.10348 0.094232
-0.045327 0.10405 0.094518997
0.041152 0.1103 0.13109
-0.0030656999 0.12089 0.087125003
-0.046138 0.11683 0.080981001
0.059319001 0.028205 0.11324
0.044881999 0.10589 0.10783
0.0012638 0.051476002 0.10407
-0.016973 0.041914001 0.11291
-0.016906001 0.04061 0.11209
0.046386 0.10643 0.10846
0.066078 0.012557 0.099248998
0.065877996 0.011532 0.098264001
0.057417002 0.14406 0.064493001
0.056446001 0.14380001 0.065824002
-0.0030566 0.11902 0.098144002
-0.0018755 0.11843 0.096577004
-0.01298 0.10215 0.10661
-0.042080998 0.10352 0.091936
0.052370999 0.12127 0.10874
0.026659001 0.11616 0.094125003
0.040683001 0.029098 0.10654
0.029595001 0.055966999 0.14128999
0.059698999 0.11826 0.092262
-0.02306 0.0013967 0.10822
-0.021651 0.0013947 0.10793
-0.02186 0.00060714001 0.10791
0.022396 0.082198001 0.13546
0.023360001 0.083191 0.13646001
-0.011721 0.0078128995 0.11515
-0.010153 0.0086444002 0.11631
0.0058359001 0.072731003 0.10476
0.0052874 0.072172999 0.10555
-0.051066 0.10999 0.082405001
-0.010535 0.029239999 0.10628
-0.0075431 0.12659 0.096911997
-0.0068633002 0.12720001 0.097906999
-0.0066918 0.12734 0.097410999
-0.044486001 0.10471 0.090718001
-0.044550002 0.10418 0.092013001
-0.012223 0.03486 0.1216
-0.050133001 0.11949 0.073118001
-0.049709 0.11905 0.074372999
0.058993999 0.034740999 0.11549
-0.01448 0.14638001 0.090075001
0.013099 0.11605 0.080998003
0.0015637 0.036525 0.11854
0.0016552 0.035574 0.11849
0.020478999 0.14410999 0.10936
0.019538 0.14451 0.10863
0.056208 0.12265 0.10329
0.064241998 0.11856 0.080498002
0.063988 0.11961 0.080296002
0.063435003 0.11905 0.081400998
-0.0081029003 0.13052 0.11431
-0.0082414001 0.12980001 0.11482
0.060768999 0.034556001 0.11217
0.01654 0.12512 0.14508
0.018058 0.12675001 0.1451
0.017516 0.12549999 0.14554
0.050528999 0.073330998 0.10681
0.051047999 0.072952002 0.10627
0.0199 0.061976001 0.12745
0.046521999 0.055773001 0.092032999
-0.041228 0.1045 0.09025
0.01466 0.13486999 0.14071999
0.016183 0.13609 0.13996001
0.01478 0.13609 0.14021
-0.0052165999 0.069495 0.11509
-0.0043199998 0.070005998 0.11591
-0.0058121001 0.11805 0.099581003
0.039639 0.10013 0.11208
0.039577998 0.099472001 0.11201
0.012743 0.086655997 0.096317999
0.013949 0.087139003 0.095942996
0.052901998 0.013841 0.087915003
0.052405 0.014013 0.088371001
-0.010909 -0.0011434 0.10763
-0.014508 -0.0026916999 0.11607
-0.014892 -0.0022625001 0.11682
0.029379001 0.063225999 0.10305
0.019663 0.15132999 0.084059
0.013505 0.14092 0.084177002
-0.014453 0.0019334001 0.10321
-0.015667999 0.00026767 0.10296
0.040518999 0.097845003 0.12022
0.039416 0.096845001 0.11965
0.024568001 0.12304 0.095274001
0.02441 0.12218 0.095715001
0.023693999 0.12214 0.094451003
0.034715001 0.065509997 0.098173
0.036263 0.11192 0.13823999
-0.0021851 0.12042 0.082897998
-0.014358 0.11219 0.10419
0.056770001 0.12932 0.070265003
0.031075999 0.060453001 0.11922
-0.029955 0.11555 0.11434
-0.030182 0.1156 0.11317
0.034465998 0.059622001 0.098232999
0.033070002 0.059806 0.098958999
0.0050396002 0.044842001 0.11986
0.031672999 0.068267003 0.099802002
0.029881001 0.068838999 0.099388003
0.066757999 0.12567 0.076338999
0.067100003 0.12518001 0.077509999
0.066191003 0.12474 0.075739004
-0.010431 0.097563997 0.11549
-0.0092080999 0.096800998 0.11474
-0.0081006 0.096891999 0.11505
-0.016728001 -0.00076220999 0.10434
0.035828002 0.085731998 0.10941
0.035952002 0.086733997 0.10981
-0.019327 0.11728 0.11751
-0.010999 0.1062 0.10268
-0.0074419999 0.015322 0.12294
-0.0073446999 0.016817 0.12282
-0.0077662002 0.016754 0.12367
-0.047474001 0.11553 0.10659
0.018073 0.062123999 0.10767
0.0040954002 0.097282998 0.13961001
0.0029698999 0.098135002 0.13951001
0.0079894001 0.097622998 0.14198001
0.060423002 0.024265001 0.11337
0.060492001 0.025243999 0.11352
0.0054334998 0.082199 0.10603
0.0054017999 0.080346003 0.10635
0.0046263002 0.081877001 0.10645
-0.0074872002 0.11644 0.13702001
-0.0065322998 0.11719 0.13696
-0.0067527001 0.11695 0.13693
0.028827 0.12841 0.094765
0.049408998 0.0076325 0.098146997
0.049756002 0.0073123001 0.10053
0.048195999 0.12558 0.10126
-0.0029398 0.10825 0.13947
-0.0030680001 0.10933 0.14045
0.020824 0.13201 0.14232001
-0.022566 -0.0010669 0.10793
-0.021379 -0.00057257997 0.10819
-0.0077736001 0.098388001 0.10119
-0.0070189 0.097815 0.1008
0.064737 0.14120001 0.077882998
0.064935997 0.14049999 0.078946002
-0.0026380001 0.13466001 0.098164
-0.0043302998 0.13513 0.097815
0.00037698 0.11917 0.085285999
-0.0073953001 0.0062974999 0.10283
-0.0088977003 0.0074658999 0.10325
-0.0031466 0.051337 0.12892
-0.037216999 0.10217 0.10235
-0.038034 0.10226 0.10253
-0.037907999 0.10213 0.10141
-0.034015 0.11185 0.11319
-0.033771001 0.10992 0.11332
-0.034203 0.11076 0.11425
0.020831 0.10463 0.14425001
0.021128001 0.10531 0.14365
-0.0070512998 0.015122 0.12371
-0.0030733 0.071254 0.12344
-0.014454 0.056166999 0.10841
0.045157 0.0097193001 0.10974
0.045795001 0.0094734998 0.11049
0.045015998 0.0098064998 0.11067
0.010121 0.050046999 0.1211
-0.0074538998 0.12963 0.11655
-0.025952 0.11771 0.11217
0.018425999 0.062430002 0.10453
0.017721999 0.062794 0.10585
0.060495 0.023325 0.11157
0.059955001 0.024839999 0.1126
0.060952999 0.023391999 0.11252
0.0062636002 0.079411 0.13107
0.0053774999 0.080633 0.13183001
0.033436999 0.058527999 0.10027
0.034458 0.056924999 0.1005
0.033679999 0.057989001 0.10045
0.059344999 0.019264 0.11079
0.059645001 0.018018 0.11201
0.020431999 0.062728003 0.11731
0.020416001 0.063231997 0.11646
-0.010159 0.026977001 0.10663
-0.0096687004 0.027284 0.10657
-0.010365 0.02637 0.10668
-0.019777 0.098339997 0.1075
-0.05167 0.11728 0.095372997
-0.052062001 0.1176 0.095826
0.0085346 0.0050121001 0.11619
0.063033998 0.14478 0.078818001
0.062679 0.14543 0.078726001
0.049520999 0.022994 0.12059
0.047995999 0.023962 0.12071
0.00045234 0.027225999 0.12557
-0.00088718999 0.027674999 0.12599
0.028868999 0.064681999 0.10164
0.033264 0.09042 0.10565
0.040502001 0.10507 0.13057999
0.040357001 0.10462 0.13012999
0.059891 0.12278 0.074505001
0.03286 0.082439996 0.13163
0.058428999 0.13774 0.069544002
0.058139 0.13801999 0.068919003
0.042900998 0.053089999 0.1173
0.043923002 0.052234001 0.11659
-0.014303 0.037877999 0.10585
-0.015238 0.037041999 0.10718
0.0086687002 0.12119 0.14490999
-0.055707999 0.11346 0.068037003
0.0054913 0.056341998 0.12977
-0.051546 0.12167 0.091027997
-0.053123999 0.12204 0.089625999
0.017514 0.062174998 0.10444
0.018874999 0.062734999 0.10357
0.018398 0.062467001 0.10448
0.050115 0.0074243001 0.10883
0.0033696 0.078534 0.12831999
0.0030538 0.077583 0.12841
0.048174001 0.13031 0.087485
0.048324 0.12973 0.087398998
0.035843 0.10048 0.13443001
0.040476002 0.11974 0.096253
0.039501999 0.12037 0.096762002
0.040559001 0.12065 0.096288003
-0.0043112002 0.0062513002 0.10397
-0.0059737 0.017969999 0.10894
-0.0073112999 0.018494001 0.10911
-0.0067129 0.018803 0.10866
0.054873001 0.14676 0.068852998
0.055396002 0.14623 0.068536997
0.031846002 0.13658001 0.11508
0.031502001 0.13597 0.11553
0.02791 0.056538001 0.14117999
0.055787001 0.11884 0.10593
0.0040182001 0.047596999 0.12492
-0.031539001 0.10146 0.10641
-0.031420998 0.099546 0.10705
-0.0080564003 0.066757999 0.11421
0.00077306002 0.13404 0.13471
-0.00039219001 0.13462999 0.13361
-0.0073694 -8.1086997e-05 0.10161
0.048884999 0.074263997 0.10422
0.048888002 0.074399002 0.10364
-0.020955 0.10082 0.10387
0.052886002 0.067327 0.099536002
0.012935 0.12013 0.067824997
-0.0048396001 0.0070827999 0.10346
-0.0047263 0.0061579999 0.10302
0.024366001 0.15538 0.083728999
0.024542 0.15626 0.084288999
0.024977 0.15485001 0.084508002
-0.013183 0.024863999 0.11339
-0.013451 0.024142999 0.11341
-0.017742001 0.15255 0.088017002
0.027303001 0.13469 0.10163
0.026707999 0.13349 0.10203
0.043140002 0.054499 0.094067998
0.041724999 0.054802999 0.093979001
0.041558001 0.055387001 0.093607999
-0.0032895 0.067051001 0.1276
0.0022817 0.13591 0.082353003
-0.050930999 0.10953 0.088615
0.034743998 0.10131 0.097446002
0.035202 0.10209 0.098696999
0.034545001 0.10083 0.098863997
0.05415 0.13377 0.079181999
0.0043628998 0.13191 0.080155998
0.0025613001 0.13169999 0.079360001
0.0037112001 0.13270999 0.080233999
0.061522 0.13287 0.093144998
-0.015332 0.045526002 0.10504
0.038821999 0.090754002 0.11639
0.039202001 0.089798003 0.11618
0.024528001 0.10483 0.090158999
0.024749 0.10685 0.090012997
0.024933999 0.10584 0.090425998
-0.011484 0.018393001 0.11279
-0.011361 0.01949 0.11425
-0.011989 0.019447001 0.11288
0.020963 0.14381 0.12684999
0.021726999 0.14410999 0.12720001
0.050058 0.12383 0.10668
-0.0045453999 0.026573 0.12702
-0.0049307998 0.025968 0.12616
0.018696999 0.11835 0.092482001
0.020370999 0.090856999 0.13752
-0.00047458001 0.066895999 0.12859
0.00093028002 0.066546999 0.12987
0.00058882998 0.067869999 0.12886
0.042300999 0.074750997 0.11915
0.049778 0.0071013998 0.095898002
0.049982 0.0077105002 0.095863998
-0.042759001 0.12461 0.097621001
-0.043536998 0.12551001 0.096143
-0.043965999 0.12517001 0.097246997
0.047561999 0.025773 0.12021
0.068575002 0.12778001 0.091154002
0.050847001 0.064035997 0.096121997
0.050781999 0.063736998 0.095615998
0.051858 0.064612001 0.096253999
-0.042792998 0.10377 0.10126
0.023507001 0.060044002 0.12555
0.024282999 0.059245002 0.12546
0.021604 0.061521001 0.12097
0.022712 0.061730001 0.12141
-0.051867001 0.11116 0.085179001
-0.036619 0.10186 0.09674
0.039689999 0.072783001 0.099178001
0.038546 0.071608998 0.098403998
0.052871 0.039478999 0.11799
0.02172 0.14342 0.11638
0.023704 0.14291 0.12743001
0.022289 0.14297999 0.12771
0.023688 0.10369 0.089769997
0.024315 0.10385 0.090048
0.034423001 0.12046 0.096611999
0.035698 0.12101 0.097608
0.021399001 0.063075997 0.10704
0.021137999 0.063842997 0.10611
0.054341 0.0072781998 0.11492
0.055188 0.0064498 0.11435
0.060681 0.030812999 0.11364
0.0062724999 0.025734 0.11946
0.0073314998 0.027016001 0.11779
0.00065061002 0.11926 0.089906
0.0026042 0.0011395999 0.11032
0.054765999 0.14755 0.067481004
0.054508999 0.14751001 0.068674996
-0.015402 0.11472 0.10447
0.049957 0.12277 0.083573997
0.051828999 0.12325 0.082534999
-0.036802001 0.10527 0.10726
0.051669002 0.15194 0.065572999
-0.0028009 0.14271 0.085666999
-0.0029569999 0.14358 0.085524999
-0.00028697 0.0019046 0.12446
0.039698999 0.11848 0.095145002
0.039717 0.11963 0.095894001
0.019831 0.071892999 0.098917
0.020269001 0.071204998 0.098719999
-0.050080001 0.12107 0.066146001
0.045729998 0.047192 0.094361
0.055628002 0.14727999 0.061693002
0.046872001 0.0097613996 0.1054
0.014059 0.1178 0.078302003
0.014283 0.1176 0.079682998
0.029565999 0.047763001 0.14300001
0.029682999 0.047871999 0.14194
0.03064 0.048507001 0.14219999
0.023987999 0.054758001 0.13916001
-0.0086313002 0.12903 0.11205
-0.0077859 0.13096 0.11149
-0.0090635 0.13019 0.1102
0.046663001 0.11491 0.091252998
0.041962001 0.024976 0.11051
0.022038 0.098481998 0.090497002
-0.021956 0.11883 0.10987
-0.021938 0.11862 0.11084
0.016012 0.1383 0.083733998
-0.014387 -0.0019181001 0.11127
-0.014564 -0.0021051001 0.1108
-0.014868 -0.0018022 0.1107
-0.0046016001 0.12572999 0.084826998
-0.0034463999 0.12688001 0.08433
0.012517 0.053438999 0.12063
0.036292002 0.12658 0.13479
0.037025001 0.12577 0.13436
0.046819001 0.059826002 0.11991
0.028737999 0.052894 0.14821
0.036874 0.097730003 0.13232
0.061301 0.012521 0.10816
0.061579 0.010408 0.10788
-0.018475 0.1092 0.12409
-0.055564001 0.1213 0.075972997
-0.055466998 0.12334 0.076681003
-0.055328 0.12156 0.075437002
-0.010809 0.018060001 0.1192
-0.011135 0.016693 0.11827
-0.01039 0.016533 0.1191
0.035101 0.060465001 0.11959
0.0040853 0.080816999 0.10808
0.0029406 0.081655003 0.10995
0.0037944999 0.081890002 0.10845
0.059149001 0.11597 0.10236
-0.048282001 0.12273 0.098770998
-0.048858002 0.12291 0.097865
-0.049614001 0.12212 0.097420998
-0.0038262999 0.069356002 0.11228
-0.0043974002 0.068898 0.11191
0.051270001 0.021903001 0.10501
0.050351001 0.021728 0.10566
0.049435999 0.02128 0.1043
0.046025999 0.029225999 0.11971
0.045541 0.029126 0.11874
0.045807 0.028186999 0.11801
-0.036407001 0.11203 0.088866003
-0.0044673998 0.1354 0.12045
-0.0039288001 0.13613001 0.12273
-0.0034787999 0.13624001 0.12067
0.038593002 0.084423997 0.12014
-0.046951 0.10715 0.10407
0.024644 0.051957 0.14223
0.055165 0.13278 0.093865
0.054917999 0.13176 0.093906
0.0073258001 0.11243 0.082010001
0.0054855002 0.11228 0.082676001
-0.047021002 0.12284 0.099321999
-0.047222 0.12371 0.098273002
0.029454 0.13691001 0.13173001
0.001118 0.038858 0.11068
0.00026169 0.039028998 0.11
0.050427999 0.026348 0.12084
0.050420001 0.026071001 0.12052
0.050824001 0.025854001 0.12082
-0.013024 0.14823 0.092656001
-0.013356 0.14646 0.092418
0.024413001 0.13330001 0.099113002
0.0029203999 0.11553 0.073013999
0.0017397 0.11562 0.071599998
0.0020309 0.11588 0.071764998
0.036362998 0.13102999 0.13154
0.034929 0.13209 0.13206001
0.039444 0.057241 0.11908
0.039078001 0.057907 0.11988
0.0066383998 0.087033004 0.13423
0.0064361999 0.086951002 0.13366
-0.017033 0.0051767998 0.10582
0.047238 0.12774999 0.087989002
0.047832999 0.12572999 0.087255999
0.048321001 0.1275 0.088767
0.018002 0.060784001 0.12119
0.018776 0.061386999 0.12111
0.040536001 0.098991998 0.11566
-0.010219 0.12612 0.12774999
-0.0084768003 0.12565 0.12816
