# .PCD v0.7 - Point Cloud Data file format
VERSION 0.7
FIELDS x y z
SIZE 4 4 4
TYPE F F F
COUNT 1 1 1
WIDTH 1553
HEIGHT 1
VIEWPOINT 0 0 0 1 0 0 0
POINTS 1553
DATA ascii
0.022895999 0.051158998 0.17494
0.024194 0.049690001 0.17611
0.023566 0.049070999 0.17725
0.021966999 0.049068 0.17990001
0.021152001 0.049332 0.18218
0.020935001 0.048601002 0.18343
0.021876 0.048363 0.18547
0.021241 0.047738999 0.18624
0.019845 0.046755001 0.18821999
0.021137999 0.045784999 0.18960001
0.020679999 0.046305999 0.19070999
0.022098999 0.044558 0.19138999
0.022119001 0.044766001 0.1936
0.021064 0.043931998 0.19472
0.020191999 0.043956 0.19670001
0.020531001 0.043024 0.19786
0.021051001 0.041591998 0.199
0.020625001 0.040970001 0.20034
0.021131 0.040553998 0.2014
0.021011 0.040305 0.2017
0.021167001 0.038486 0.20406
0.021579999 0.037411999 0.20507
0.021412 0.037558999 0.20653
0.021703999 0.037526 0.20727
0.021466 0.036474999 0.20915
0.021475 0.035688002 0.20994
0.021888999 0.034503002 0.21114001
0.021247 0.033913001 0.21186
0.023127999 0.033406001 0.21412
0.02224 0.032237001 0.21455
0.023549 0.031720001 0.21630999
0.02306 0.030006999 0.21607
0.02389 0.029018 0.21732999
0.024758 0.028158 0.21881001
0.036130998 0.010352 0.22464
0.036520999 0.0089838998 0.22563
0.0033477 -0.0035649999 0.20035
0.023179 0.050909001 0.17341
0.022585999 0.049956001 0.17547999
0.022105001 0.048572998 0.17560001
0.022944 0.048555002 0.17728999
0.021263 0.048487 0.17930999
0.020992 0.049302999 0.18124001
0.020307999 0.048195999 0.18313999
0.021019001 0.047435999 0.18475001
0.020945 0.046007 0.18645
0.019955 0.047226999 0.18847001
0.020446001 0.046429999 0.18995
0.019493001 0.046372999 0.1909
0.019764001 0.044112001 0.1913
0.020570001 0.044172 0.19261
0.020241 0.043643001 0.19498
0.019811001 0.043039002 0.19667
0.020338999 0.042619001 0.19753
0.020713 0.041234002 0.19850001
0.020920999 0.040518999 0.20029999
0.020540999 0.039558001 0.20043001
0.020157 0.038276002 0.20266999
0.019564001 0.038740002 0.20290001
0.020051001 0.037797999 0.20451
0.019878 0.038205002 0.20634
0.019935001 0.036566999 0.20736
0.021238999 0.036341999 0.20963
0.02073 0.035567001 0.2103
0.021248 0.034515001 0.2112
0.021685001 0.032910001 0.21258999
0.022444 0.032458998 0.21265
0.021777 0.031785 0.21495
0.022143999 0.030608 0.21569
0.023297001 0.027829999 0.21811
0.035507999 0.0090570999 0.22595
0.019897999 0.050461002 0.17371
0.021764999 0.048748001 0.17412999
0.021600001 0.049100999 0.17601
0.021950001 0.047685001 0.17705999
0.020289 0.048133999 0.17851
0.020777 0.047789 0.18131
0.021016 0.04744 0.18363
0.019230001 0.046778999 0.18443
0.019726999 0.046495002 0.18519001
0.019112 0.046085 0.18844999
0.019038999 0.045818999 0.18934
0.019296 0.045389 0.19156
0.019231001 0.044261001 0.19245
0.018753 0.043733999 0.1925
0.018883999 0.042417001 0.19426
0.019456999 0.042787001 0.19558001
0.019642999 0.041940998 0.19665
0.018648 0.040665001 0.19847
0.019181 0.040103 0.19967
0.019809 0.038874999 0.20067
0.019283 0.038857002 0.20226
0.019477 0.038254 0.20403001
0.019251 0.038132001 0.20463
0.019404 0.036054 0.20663001
0.020032 0.035824001 0.20785999
0.019956 0.035321001 0.20837
0.020045999 0.034460999 0.21051
0.020502999 0.033112001 0.21016
0.019556001 0.032464001 0.21168
0.020831 0.032187998 0.21275
0.021531999 0.030680999 0.21407001
0.020676 0.029842 0.2157
0.034825001 0.0071216999 0.22474
-0.0020434 0.025526 0.15542001
0.020369001 0.049516 0.17262
0.020375 0.048971001 0.17411
0.02066 0.047726002 0.17474
0.020733001 0.047017001 0.17705999
0.02029 0.047357999 0.17951
0.020223999 0.046363998 0.18115
0.019732 0.046565998 0.18233
0.019474 0.046030998 0.18446
0.018663 0.045060001 0.18559
0.018592 0.045235999 0.18804
0.017994 0.044737 0.18870001
0.018159 0.043616999 0.18964
0.017193001 0.043503001 0.19182999
0.018683 0.042775001 0.19272
0.018177001 0.043110002 0.19399001
0.018095 0.041599002 0.19557001
0.017580001 0.041081 0.19791
0.018327 0.040532999 0.19842
0.018656 0.040079001 0.19950999
0.018688999 0.039379001 0.20045
0.019029999 0.039337002 0.20193
0.018943001 0.037923001 0.20322999
0.018587001 0.036671001 0.20451
0.017801 0.035728998 0.2067
0.018238001 0.035884 0.20702
0.019446 0.034536999 0.2085
0.019564999 0.033723999 0.20949
0.019843999 0.03328 0.21070001
0.020296 0.032556999 0.21188
0.019907 0.031195 0.2137
0.019723 0.030990999 0.21403
0.020334 0.02957 0.21501
-0.0033708001 0.019884 0.149
0.015598 -0.015227 0.12229
0.019507 0.049733002 0.17301001
0.020496 0.048110999 0.17342
0.020442 0.047764 0.17557
0.020684 0.046707999 0.17640001
0.019355999 0.046347 0.1794
0.018131001 0.046627 0.18029
0.018646 0.045276001 0.18233
0.018193999 0.046066999 0.18342
0.018154001 0.045655999 0.18559
0.017795 0.045097999 0.18797
0.017488999 0.04386 0.189
0.018183 0.043048002 0.1899
0.017349999 0.043593999 0.19096
0.017228 0.043193001 0.19312
0.016872 0.04208 0.19465999
0.017186999 0.041246001 0.19592001
0.016975001 0.041063 0.19679999
0.017147999 0.040169999 0.19818
0.017693 0.039728999 0.19964001
0.018827001 0.038562 0.20056
0.017813001 0.037951 0.20276999
0.017089 0.036899 0.20308
0.018072 0.036295 0.20518
0.017736999 0.035665002 0.20589
0.018065 0.034995001 0.20699
0.017859001 0.034194 0.20793
0.018820001 0.033893 0.20953999
0.018337 0.031709999 0.2103
0.018266 0.032241002 0.2119
0.018998001 0.03111 0.21250001
0.019533001 0.029794 0.21468
0.019413 0.030201999 0.21517
0.043898001 0.029424001 0.15182
-0.0028148999 0.022405 0.15036
0.024094 0.048214 0.16549
0.037505001 0.017244 0.14467999
0.018666999 0.049293999 0.17151
0.018321 0.048617002 0.17287999
0.018185001 0.048567999 0.17470001
0.018716 0.048004001 0.17614
0.018931 0.046069 0.17648
0.018529 0.046077002 0.17858
0.017643001 0.046034001 0.17981
0.017438 0.046080999 0.18200999
0.017524 0.04532 0.18391
0.017842 0.044392999 0.18584
0.016971 0.043772001 0.18617
0.016929001 0.044188999 0.18911999
0.017656 0.043614 0.18989
0.016790999 0.042185001 0.19138999
0.016635001 0.041898001 0.19255
0.016395999 0.041515 0.19361
0.016744001 0.039889999 0.19678
0.016775999 0.041223001 0.19786
0.016480001 0.039476 0.198
0.017034 0.038362 0.19961999
0.015955999 0.038288001 0.20081
0.015984001 0.038090002 0.20136
0.015853999 0.037142999 0.20367
0.016486 0.035843 0.20528001
0.016574999 0.035463002 0.20558
0.016628001 0.033966001 0.20682999
0.017856 0.033775002 0.20843001
0.017306 0.032425001 0.20908
0.017960999 0.032111999 0.20961
0.018488999 0.031114999 0.21139
0.017964 0.030479001 0.21302
0.018621 0.029191 0.21433
0.017976001 0.028791999 0.2158
0.017801 0.02751 0.21698999
0.025769999 0.0036543999 0.22025
0.040555 -0.032117002 0.28178
0.041432001 -0.031998999 0.28270999
0.047981001 0.058115002 0.16654
0.048046999 0.056710001 0.16564
0.045917999 0.056855999 0.1666
0.017951 0.049654 0.17106
0.018193999 0.047656 0.17238
0.018231999 0.047219999 0.17414001
0.018671 0.047184002 0.17522
0.018252 0.045846999 0.17609
0.018018 0.045581002 0.17786001
0.017543999 0.045901 0.18074
0.017410001 0.044930998 0.1814
0.016388999 0.044172 0.18288
0.016791999 0.044098999 0.18489
0.015635001 0.043669999 0.18594
0.016410001 0.044114001 0.18828
0.016404999 0.042183001 0.18938001
0.015866 0.042704999 0.19091
0.015807001 0.041795999 0.19324
0.015846999 0.041529998 0.19397999
0.015372 0.040399998 0.19523001
0.015468 0.040286001 0.19664
0.014693 0.039377999 0.19752
0.015246 0.038045 0.19875
0.016127 0.037716001 0.20011
0.015781 0.036456998 0.20163999
0.015931999 0.035776 0.20297
0.015747 0.035110001 0.20472001
0.015716 0.034697998 0.20528001
0.015606 0.034068 0.20661999
0.016254 0.033247001 0.20796999
0.016372001 0.032450002 0.20913
0.016887 0.031803001 0.21031
0.016233001 0.031541999 0.21151
0.017698999 0.030988 0.21249001
0.017698999 0.02898 0.21335
0.017975001 0.027551999 0.21582
0.018243 0.027604001 0.21483
0.043908998 0.012232 0.13866
0.041947 0.012893 0.13926999
-0.0093834 0.0095103998 0.14339
-0.0086380001 0.0097139999 0.14351
0.047256 0.059698001 0.16859999
0.048296999 0.057557002 0.16658001
0.041799001 -0.032292999 0.27630001
0.041331001 -0.032627001 0.27959999
0.040934999 -0.031532999 0.27947
0.041400999 -0.033206999 0.28219
0.040472001 -0.033085 0.28288999
0.017821999 0.047451999 0.17388999
0.016558001 0.046181999 0.17526001
0.018386001 0.045116998 0.17618001
0.017422 0.044842001 0.17678
0.016624 0.045345001 0.17936
0.016212 0.044353001 0.18158001
0.016026 0.044374 0.1831
0.015930001 0.043492001 0.18392999
0.015188 0.043331001 0.18634
0.015233 0.042723998 0.18736
0.014742 0.042103998 0.18898
0.014628 0.04152 0.19093999
0.01479 0.040557999 0.19182
0.015176 0.041225001 0.19425
0.014582 0.039895002 0.19548
0.014723 0.038883001 0.19690999
0.014425 0.038610999 0.19778
0.01391 0.038169999 0.19955
0.014459 0.036671001 0.20022
0.015538 0.036713 0.20283
0.014323 0.035199001 0.20265
0.015291 0.035360999 0.20422
0.015317 0.034107 0.20535
0.014377 0.033424001 0.2069
0.01565 0.032883 0.20827
0.015807001 0.032308999 0.20830999
0.015983 0.031479999 0.21017
0.015876001 0.031066 0.21184
0.016485 0.029797999 0.2124
0.016102999 0.029214 0.21363001
0.015961001 0.027402001 0.21511
0.017663 0.026311001 0.21618
0.050693002 0.044396002 0.15696
0.037563998 0.039918002 0.16118
0.036943 0.040415 0.16135
0.052654002 0.049236 0.15891001
0.052634999 0.046438001 0.15784
0.050207999 0.049153998 0.15906
0.066083997 0.035758998 0.14706001
0.066451997 0.033397 0.14729001
0.091665998 0.048027001 0.16032
0.090981998 0.047472 0.15876999
0.040210001 -0.032786001 0.27631
0.040424 -0.032883 0.27777001
0.040205002 -0.033452999 0.27959001
0.040323999 -0.034483999 0.28128001
0.041196 -0.034343001 0.28310999
0.040748 -0.034862 0.28375
0.016868999 0.046043999 0.17399
0.016965 0.046512 0.17551
0.016983001 0.045290999 0.176
0.016236 0.044137001 0.17678
0.015505 0.043696001 0.17948
0.016013 0.043223999 0.18066999
0.015471 0.042587001 0.18226001
0.01478 0.043021001 0.18376
0.014414 0.041758001 0.18572
0.014541 0.042489 0.1877
0.014503 0.040766999 0.18928
0.013969 0.040008999 0.19042
0.014166 0.041095 0.19253001
0.013663 0.039384 0.19311
0.0142 0.039165001 0.19441
0.014125 0.037478998 0.19573
0.014176 0.038536001 0.19769999
0.013258 0.038206998 0.19854
0.014066 0.036660001 0.20028999
0.013435 0.035665002 0.20119999
0.013846 0.036088999 0.20235001
0.014575 0.035121001 0.204
0.014466 0.034407001 0.20562001
0.014299 0.032400999 0.20693
0.015163 0.032244999 0.20767
0.014381 0.031431999 0.20759
0.015567 0.030370999 0.20963
0.016106 0.029920001 0.21175
0.014784 0.029301001 0.21242
0.015538 0.02833 0.21340001
0.015898 0.026945001 0.21454
0.017276 0.02679 0.21540999
-0.011628 0.0053189001 0.14140999
-0.010956 0.0040966999 0.13929
0.043724 0.0013584 0.12592
0.051975999 0.046227001 0.15778001
0.053504001 0.029253 0.14985999
0.051750999 0.028666001 0.14913
0.052266002 0.029518999 0.15015
0.040057 -0.033222001 0.2735
0.041317001 -0.033709001 0.27524
0.040656999 -0.033886001 0.27768001
0.039907999 -0.034267999 0.27864
0.039856002 -0.035330001 0.27998
0.03957 -0.035734002 0.28193
0.040399 -0.036658999 0.28231999
0.014822 0.04589 0.17271
0.016071999 0.044858001 0.17465
0.015683999 0.044381998 0.17651001
0.014651 0.044034 0.17679
0.015821001 0.042653002 0.17881
0.01481 0.042622 0.18032999
0.014349 0.043056998 0.18312
0.014244 0.042438999 0.18479
0.014102 0.040982001 0.18602
0.013811 0.040750999 0.18712001
0.014137 0.040640999 0.18904001
0.013663 0.040043999 0.18956999
0.013408 0.040307 0.19148999
0.013704 0.038592 0.19318999
0.01299 0.038876001 0.19448
0.013786 0.038449001 0.19574
0.013603 0.037252001 0.19685
0.012864 0.037399001 0.19868
0.013702 0.037338998 0.19954
0.013317 0.035813998 0.20118999
0.013217 0.034952 0.20292
0.012541 0.034318998 0.20426001
0.013092 0.034187999 0.20486
0.013051 0.032207999 0.20613
0.014479 0.030975999 0.20747
0.013299 0.030230001 0.20896
0.015064 0.028996 0.20925
0.01542 0.029061999 0.2105
0.014766 0.029017 0.21222
0.01432 0.027861999 0.21397001
0.01567 0.026503 0.21421
0.015678 0.026497001 0.21436
0.016280999 0.024941999 0.21664999
-0.010635 0.0060431999 0.141
0.037402999 0.02069 0.14683001
0.036276001 0.021201 0.14686
0.035293002 0.021555999 0.14846
0.04874 0.010181 0.13647
0.047908001 0.0080722002 0.13538
0.047217999 0.0089584002 0.13518
0.046314001 0.010874 0.1371
0.040181998 -0.033341002 0.27386001
0.040036 -0.03475 0.27588001
0.039576001 -0.035434 0.27682999
0.039496999 -0.035402 0.27822
0.039399002 -0.036984 0.27958
0.040155999 -0.036784001 0.28150001
0.040410999 -0.037282001 0.28231001
0.013782 0.046271998 0.17312001
0.013486 0.046176001 0.17305
0.014097 0.044477999 0.17449
0.014673 0.043570999 0.17575
0.015213 0.042932 0.17619
0.015058 0.042530999 0.17744
0.014223 0.041499 0.17979001
0.013829 0.042351 0.18172
0.013627 0.040169001 0.18343
0.01387 0.040139001 0.18395001
0.013145 0.040824998 0.18663999
0.013315 0.039935 0.18817
0.013711 0.040070999 0.18945
0.012768 0.038481999 0.19107001
0.012912 0.037992001 0.19220001
0.012913 0.037900001 0.19396999
0.013068 0.037872002 0.19571
0.01317 0.036706001 0.19702999
0.01159 0.036040001 0.19784001
0.012387 0.035657998 0.20047
0.01258 0.034480002 0.20043001
0.012811 0.033702999 0.20147
0.012621 0.034217 0.20379999
0.012707 0.032788999 0.20536
0.012635 0.031909 0.20558
0.0142 0.031583998 0.2071
0.01395 0.030423 0.20829999
0.013215 0.029352 0.20942
0.013433 0.02846 0.21041
0.014868 0.027651001 0.21115001
0.01366 0.027553 0.21259999
0.014228 0.026143 0.21312
0.014638 0.024545001 0.2149
0.01468 0.023948001 0.21503
0.015022 0.023700001 0.2165
0.010841 -0.0052137999 0.12927
0.010118 -0.0064579002 0.12846
0.0097955 -0.0042909002 0.13117
0.034956999 0.024551 0.15042999
0.033898 0.023995001 0.15002
0.028442999 0.039719 0.16407
0.040502999 -0.03413 0.26956999
0.039918002 -0.034751002 0.27167001
0.039714999 -0.035181001 0.27300999
0.039627001 -0.035006002 0.27548
0.039050002 -0.035946999 0.27621001
0.039526001 -0.036350999 0.27717999
0.040282 -0.037491001 0.27937999
0.039262 -0.037613999 0.28002
0.040477999 -0.038242999 0.28191
0.013499 0.047180001 0.17125
0.012769 0.046854999 0.17298999
0.013103 0.045336999 0.17338
0.013906 0.044062 0.17385
0.01373 0.043450002 0.17562
0.014584 0.042424001 0.17557
0.014192 0.042181 0.17761999
0.013526 0.04143 0.17913
0.013409 0.041187 0.1812
0.013158 0.040917002 0.18257999
0.014185 0.039834 0.18442
0.013488 0.039483 0.18517999
0.012521 0.039027002 0.18697999
0.012106 0.038260002 0.1891
0.012292 0.037951 0.19032
0.012321 0.038520999 0.19253001
0.012225 0.037315998 0.19314
0.012381 0.036497999 0.19464
0.012011 0.036327999 0.19632
0.012633 0.03554 0.19727001
0.011833 0.035285 0.19958
0.012526 0.033445999 0.20023
0.012205 0.033291001 0.20203
0.012308 0.032425001 0.20254
0.011795 0.032152999 0.20398
0.012442 0.030819001 0.20528001
0.011701 0.030262999 0.20671999
0.012563 0.029483 0.20811
0.012963 0.028491 0.20811
0.012793 0.028167 0.21042
0.012762 0.027153 0.21111999
0.013996 0.025664 0.21172
0.013604 0.025734 0.21274
0.014119 0.025218001 0.21469
0.015071 0.023607001 0.2154
0.024422999 0.0036921001 0.21972001
0.032729998 0.034540001 0.15899999
0.033098999 0.033737 0.15794
0.030866999 0.034472 0.15815
-0.0044447002 -0.024658 0.20152
0.045387998 -0.0017344001 0.12425
0.091045 0.047644001 0.15994
0.089489996 0.046029001 0.15876999
0.039898001 -0.034327 0.26934001
0.040054001 -0.035663001 0.27111
0.039390001 -0.035982002 0.27221999
0.039827 -0.036568999 0.27451
0.039087001 -0.036665998 0.27564999
0.038991001 -0.037110001 0.27764001
0.039289001 -0.038026001 0.27864
0.039112002 -0.0385 0.27913001
0.012738 0.044792 0.17167
0.01243 0.044636 0.1737
0.011966 0.044597 0.17506
0.013438 0.042381 0.17527001
0.013294 0.042100001 0.17648999
0.013101 0.041285001 0.17775001
0.013031 0.041110002 0.17934
0.014078 0.040612001 0.18092
0.013304 0.039345 0.18254
0.013216 0.039772 0.18374
0.012986 0.038249999 0.18542001
0.012816 0.038759999 0.18674
0.012025 0.037154999 0.18866999
0.011685 0.037505999 0.19113
0.012536 0.037330002 0.19199
0.011117 0.035858002 0.1935
0.01056 0.035556 0.19371
0.011382 0.035029002 0.19551
0.011488 0.035041999 0.19769
0.010623 0.034000002 0.19918001
0.011535 0.034116 0.20045
0.010301 0.032798 0.20066001
0.011122 0.032933999 0.20175999
0.011609 0.031130999 0.20457
0.011731 0.029952001 0.20524
0.012154 0.028925 0.20659
0.011452 0.029087 0.20784999
0.012302 0.027465999 0.2084
0.013085 0.027697001 0.21047001
0.011833 0.027043 0.21166
0.01201 0.025830001 0.21175
0.012835 0.024462 0.21389
0.013457 0.023499001 0.2141
0.014749 0.022887001 0.21458
0.028695 0.040736001 0.16501001
0.0019033001 -0.0059258998 0.16311
0.010003 -0.0070110001 0.12783
0.032382999 0.037902001 0.16162001
0.032497998 0.029759999 0.15373001
0.069280997 0.025490001 0.14475
0.069109 0.026191 0.14535999
0.069565997 0.024653001 0.14348
0.038849998 -0.035227999 0.26890001
0.038221002 -0.035445001 0.27034
0.039205 -0.036283001 0.27142
0.038361002 -0.037239999 0.27434
0.038977001 -0.037819002 0.27555999
0.038892999 -0.038332999 0.27632001
0.038621001 -0.039168999 0.27770999
0.011066 0.045990001 0.1706
0.011911 0.045639001 0.17204
0.012326 0.044571001 0.17372
0.010934 0.043481 0.17366999
0.012475 0.042504001 0.17461
0.012697 0.041684002 0.17674001
0.012877 0.039351001 0.17795999
0.012595 0.039133001 0.17835
0.012863 0.039981 0.18046001
0.01278 0.038970001 0.18098
0.012946 0.038297001 0.18377
0.012319 0.038224 0.18460999
0.011698 0.037418999 0.18561
0.012024 0.036697999 0.18781
0.011454 0.03664 0.19019
0.011216 0.036641002 0.19109
0.012458 0.035849001 0.19225
0.011059 0.034635 0.19393
0.010792 0.034660999 0.19568001
0.010462 0.033817999 0.19683
0.010851 0.033735 0.19889
0.01066 0.03198 0.19958
0.010055 0.031819999 0.20224001
0.010759 0.032203 0.2026
0.010216 0.029092999 0.20372
0.010477 0.03039 0.20464
0.010463 0.029026 0.20588
0.011517 0.028306 0.20708001
0.011499 0.028171999 0.20877001
0.011788 0.027465001 0.20922001
0.011342 0.025161 0.21063
0.013029 0.025335001 0.21160001
0.011664 0.024157001 0.21186
0.013134 0.022954 0.21389
0.013415 0.021610999 0.21421
0.026543999 0.0019361 0.22143
0.051011998 0.015305 0.14128
0.061546002 0.027501 0.14731
0.06182 0.026620001 0.14654
0.059716001 0.027572 0.14715999
0.087788001 0.061018001 0.16994999
0.047768999 0.049949002 0.16147999
0.047662999 0.047782999 0.15959001
0.04676 0.047646999 0.16083001
0.038605001 -0.036031999 0.26715001
0.038883001 -0.035969 0.26892999
0.039154999 -0.037115 0.27039999
0.039129 -0.036102001 0.27121001
0.037579 -0.037923001 0.27257001
0.038082 -0.038885001 0.27485999
0.038662001 -0.038674999 0.27577001
0.038461 -0.040316001 0.27689999
0.010405 0.044613 0.17
0.011174 0.043974999 0.17166001
0.011025 0.043648001 0.17306
0.011264 0.043435 0.17438
0.011225 0.04228 0.17535
0.011385 0.040995002 0.17549001
0.012896 0.040743001 0.17738999
0.012558 0.038610999 0.17812
0.012608 0.037857998 0.17952
0.01181 0.038150001 0.18144999
0.012245 0.037965 0.18190999
0.012191 0.037533998 0.18396001
0.011434 0.036272001 0.18523
0.010943 0.036212999 0.1873
0.01171 0.035868999 0.18878999
0.010901 0.035812002 0.18961
0.011591 0.03475 0.19146
0.01108 0.034224998 0.19346
0.01031 0.032951001 0.19514
0.0095167002 0.033381999 0.19577
0.010057 0.032814998 0.1978
0.010097 0.031908002 0.19898
0.010757 0.032010999 0.20209999
0.010058 0.031172 0.20185
0.0093847001 0.029917 0.20333
0.010695 0.028926 0.2053
0.010348 0.029031999 0.20656
0.010501 0.02839 0.20765001
0.01007 0.026744001 0.2076
0.010872 0.026216 0.20919999
0.011126 0.025707999 0.21100999
0.01211 0.024982 0.21149001
0.011811 0.024205999 0.21265
0.012574 0.022162 0.2139
0.012801 0.021470999 0.21388
0.028760999 -0.039115001 0.15102001
0.024187 0.0043917 0.21904001
0.024411 0.0031296001 0.21972001
0.059932001 0.02733 0.14753
0.070263997 0.023267001 0.13853
0.046542 0.048434 0.16257
0.038391002 -0.036075 0.26671001
0.037728 -0.037381999 0.26822001
0.037765998 -0.037898999 0.27011001
0.039039001 -0.037255999 0.27138999
0.037682999 -0.038238 0.27241999
0.037661001 -0.040366001 0.27327001
0.037905 -0.040268 0.27445
0.038740002 -0.041659001 0.27533001
0.048034001 0.0061182999 0.13431001
0.048624001 0.0055090999 0.13343
0.046875 0.0062064999 0.13373999
0.0099004004 0.044826001 0.16948
0.0093924003 0.044980001 0.17025
0.0087200003 0.043568 0.17124
0.0094079003 0.043609999 0.17228
0.010236 0.042410001 0.17406
0.011385 0.041418001 0.17544
0.010729 0.040624999 0.17643
0.012031 0.038015999 0.1767
0.011352 0.038486999 0.1772
0.011958 0.037209999 0.17824
0.011367 0.037703 0.18051
0.011239 0.035893999 0.18162
0.011586 0.035987001 0.18359999
0.010855 0.035856999 0.18412
0.011697 0.035250999 0.18724
0.010674 0.034768999 0.18777999
0.010239 0.034286 0.19016001
0.0092729004 0.033849999 0.19058
0.0094478996 0.033658002 0.19284999
0.010117 0.032602999 0.19431999
0.0098006995 0.031861 0.19520999
0.0093836999 0.031404 0.19724999
0.0087679001 0.03156 0.19864
0.0088930996 0.030151 0.20003
0.0092222998 0.030009 0.20025
0.008901 0.029607 0.2034
0.0098620998 0.028522 0.20398
0.0097102998 0.027923999 0.2052
0.0097255995 0.027269 0.20746
0.010095 0.026112 0.20744
0.010972 0.025491999 0.20897999
0.010756 0.024654999 0.21042
0.010669 0.023934999 0.21033999
0.010974 0.022678001 0.21228001
0.01093 0.021385999 0.21236999
0.012307 0.020593001 0.21392
0.023250001 0.0037469999 0.21861
0.039827999 0.033544999 0.15605
0.038989 0.033119999 0.15637
0.038029 0.035245001 0.15748
0.038412001 -0.037399001 0.26636001
0.038206998 -0.037785001 0.26846001
0.036805 -0.036986001 0.26866001
0.037184 -0.038525 0.27144
0.037554 -0.038872 0.27221
0.036984999 -0.039905999 0.27357
0.038337 -0.042089 0.27506
0.038837001 -0.041646 0.27526999
0.0078127999 0.044227999 0.17016999
0.0090007996 0.043455999 0.17089
0.0093647996 0.042909998 0.17354999
0.0092006996 0.041797001 0.17372
0.0092829 0.041049998 0.17407
0.010651 0.039919998 0.17512
0.011681 0.038747001 0.17584001
0.011901 0.038068 0.17727
0.010944 0.036924001 0.17854001
0.011498 0.036157001 0.17979001
0.011423 0.035494 0.18152
0.010947 0.035557002 0.18262
0.0097409999 0.031642001 0.19379
0.0095396005 0.0308 0.19499999
0.0092887999 0.030281 0.19651
0.0088513996 0.030602001 0.19871999
0.0096140001 0.029898999 0.20025
0.0089840004 0.029533001 0.20166001
0.0091335 0.028105 0.20212001
0.010136 0.027775999 0.20321999
0.0090902997 0.027153 0.20489
0.0095127998 0.025891 0.20640001
0.0095616002 0.025351999 0.20689
0.0098791001 0.024266999 0.20840999
0.0095330998 0.023467001 0.20896
0.0094905999 0.023476999 0.21086
0.010677 0.021585001 0.21129
0.010503 0.020687999 0.2124
0.011344 0.021109 0.21308
0.022848001 0.0029712999 0.21809
0.017107001 0.037772998 0.16452999
0.037549 -0.037976999 0.26412001
0.037468001 -0.037884001 0.26578
0.036782999 -0.038796 0.26693001
0.036812998 -0.038644001 0.26857001
0.03627 -0.039259002 0.27000999
0.036770001 -0.040081002 0.2719
0.036711 -0.040964998 0.27246001
0.036984999 -0.042179 0.27426001
0.037466001 -0.042923 0.27497
0.026512001 -0.076865003 0.1734
0.02667 -0.078479998 0.17310999
0.022209 -0.022338999 0.14877
0.022143001 -0.020141 0.14926
0.0071695 0.043687001 0.16940001
0.0073127002 0.043210998 0.17112
0.0087372996 0.04225 0.17161
0.0089130998 0.041413002 0.17305
0.0085544996 0.039087001 0.17399
0.010115 0.039565001 0.17512
0.010099 0.03768 0.17624
0.011112 0.036733001 0.17662001
0.011369 0.035806999 0.17789
0.010749 0.035473999 0.17975
0.0094448002 0.030242 0.19787
0.0087564001 0.028454 0.19840001
0.0086404998 0.028222 0.19991
0.0088592004 0.027445 0.2013
0.0083211996 0.026945001 0.20319
0.0086006997 0.026037 0.20385
0.0088015003 0.025201 0.20492999
0.0087451003 0.024785001 0.20699
0.0091471998 0.023995001 0.20730001
0.010029 0.022833999 0.2087
0.010621 0.022670999 0.20935
0.0097495001 0.021968 0.21104001
0.011288 0.020663001 0.2122
0.011231 0.019323001 0.2123
0.022583 0.0022857999 0.21838
0.073968001 0.037668999 0.14634
0.031736001 0.033089999 0.15674999
0.030100999 0.034745999 0.15843999
0.03246 0.032171998 0.15582
0.031557001 0.030887 0.15629999
0.036180999 -0.038399 0.2647
0.036417998 -0.039048001 0.26723
0.036426999 -0.038621999 0.26851001
0.036578 -0.039786 0.26934001
0.036435001 -0.041041002 0.27098
0.036486998 -0.041367002 0.27206001
0.036529999 -0.042849999 0.2735
0.036975 -0.044050001 0.27447999
0.0077255 0.040468998 0.17306
0.0080362996 0.039926 0.17377999
0.0092328005 0.038587999 0.17457999
0.010017 0.037059002 0.17541
0.010137 0.036444001 0.17564
0.010324 0.035533 0.17707001
0.043646999 0.029262001 0.15234999
0.0079977997 0.027669 0.20069
0.0083136 0.026399 0.20065001
0.0078571998 0.026309 0.20291001
0.0085113999 0.025106 0.20367
0.0080535002 0.024826 0.20525999
0.0090303998 0.023050999 0.20561001
0.0087045999 0.022808 0.20661999
0.0089608999 0.021415999 0.20805
0.0093502998 0.021857999 0.20993
0.0099978 0.019421 0.21096
0.010377 0.019990001 0.21131
0.011172 0.018371999 0.21162
0.071624003 0.015798001 0.1312
0.071404003 0.016933 0.13281
0.061946999 0.01553 0.13812999
0.045297001 -0.0023711 0.12425
0.0039904998 -0.037255 0.15538999
0.074348003 0.038495 0.14812
0.075584002 0.03805 0.14743
0.074134 0.039005 0.14837
0.076113001 0.036493 0.14602999
0.074708998 0.037145 0.14582001
0.073968001 0.038268998 0.14691
0.076921999 0.035638999 0.14539
0.075268999 0.035142001 0.14435001
0.077105001 0.034805 0.14403
0.075732999 0.033769 0.14341
0.076839998 0.033456001 0.14249
0.076301001 0.032788001 0.14177001
0.077660002 0.031184999 0.14084999
0.077370003 0.031102 0.14108001
0.078502998 0.029896 0.14024
0.077669002 0.030648001 0.14071999
0.079145998 0.029251 0.13899
0.078295 0.028299 0.13891999
0.079832003 0.027752999 0.13815001
0.079755001 0.027546 0.13845
0.079957001 0.026357999 0.13823
0.079008996 0.02612 0.13731
0.079759002 0.024707999 0.13841
0.079520002 0.024700001 0.1371
0.072309002 0.044069 0.15211
0.072475001 0.042559002 0.15177
0.072605997 0.042900998 0.15196
0.078221001 0.023953 0.13733
0.077846996 0.021841999 0.13647
0.07203 0.045219 0.15366
0.053649001 0.042514 0.15402
0.072043002 0.041053999 0.15047
0.071639001 0.041099001 0.15022001
0.090779997 0.056108002 0.16507
0.091825999 0.054048002 0.16406
0.090108998 0.055218 0.16392
0.056485999 0.051288001 0.15979999
0.054924 0.051819 0.16038001
0.072825998 0.046992 0.15459
0.059131 0.031923998 0.14823
0.059358001 0.030241 0.14932001
0.058359001 0.030270999 0.14925
0.063757002 0.0074169999 0.12673
0.059606999 0.0020995999 0.12463
0.059872001 0.0014815 0.12432
0.058763001 0.0017414 0.12337
0.045501001 0.058676001 0.16768999
0.060559001 0.0010461 0.12381
0.059163999 0.0011586 0.12296
0.062233999 0.010742 0.1288
0.062270001 0.024851 0.14587
0.060539 0.024719 0.14443
0.059571002 0.026380001 0.14638001
0.063932002 0.0090605002 0.12696999
0.062554002 0.0092879999 0.12826
0.071791001 0.047467001 0.15671
0.071080998 0.045784 0.15557
0.063992001 0.031461 0.14828999
0.064599 0.031381998 0.14820001
0.064038999 0.029417999 0.14817999
0.061051998 0.026036 0.14636
0.069522999 0.018801 0.13357
0.068648003 0.017414 0.13313
0.067628004 0.017937999 0.13383
0.048631001 0.055360001 0.16441999
0.092106998 0.052882999 0.16378
0.091698997 0.053061999 0.16198
0.091050997 0.054370001 0.16395999
0.071648002 0.046269 0.15592
0.091237001 0.057638999 0.16692001
0.088688999 0.056807 0.16519
0.070828997 0.041923001 0.1506
0.025645999 0.044183999 0.16694
0.052390002 0.024962001 0.14702
0.071066 0.015586 0.13160001
0.068177 0.017340001 0.13212
0.089158997 0.060081001 0.16889
0.071408004 0.048772998 0.15739
0.049415998 0.047139999 0.15835001
0.050512001 0.048517 0.16001
0.065866001 0.013812 0.13104001
0.067185998 0.013496 0.12915
0.065592997 0.012958 0.13062
0.063198 0.032689001 0.14734
0.062460002 0.032529999 0.14825
0.033236999 0.03985 0.16242
0.057207 0.03224 0.15023001
0.057363 0.033528 0.14903
0.056986 0.035714999 0.14974
0.055932 0.036155 0.14913
0.055119999 0.036465 0.15033001
0.073464997 0.040141001 0.14867
0.060235001 0.006366 0.12645
0.060972001 0.0044839 0.12588
0.060403001 0.0058419998 0.12635
0.045722 0.035592999 0.15699001
0.0451 0.034425002 0.1547
0.044737 0.034232002 0.15632001
0.055836 0.036940001 0.15027
0.068365999 0.010361 0.12831999
0.068961002 0.01017 0.13061
0.070575997 0.015511 0.13170999
0.06927 0.014591 0.13089
0.068985 0.015453 0.13168
0.068920001 0.020785 0.13431001
0.067744002 0.019616 0.13436
0.063344002 0.031438999 0.14833
0.067971997 0.011141 0.13032
0.066243 0.010593 0.12874
0.066370003 0.012836 0.12932999
0.067239001 0.0096982 0.1288
0.032995 0.052930001 0.16746999
0.033169001 0.051144 0.16777
0.032954998 0.050829001 0.16748001
0.057776999 0.0059062 0.12848
0.056651998 0.0056901998 0.12773
0.054494001 0.016604001 0.14055
0.055422001 0.014117 0.13974001
0.053399999 0.015014 0.14069
0.04992 0.022875 0.14655
0.055381998 0.013883 0.13857
0.053854998 0.014938 0.13898
0.054850001 0.013181 0.13832
0.060102999 0.018510999 0.14101
0.058975998 0.018588001 0.14192
0.025277 0.048347 0.16532999
0.025699001 0.047749002 0.16644999
0.024216 0.046744999 0.16481
0.030725 0.035156 0.16009
0.030024 0.036244001 0.16091999
0.044004001 0.039106 0.15948001
0.044252001 0.038029 0.15843
0.042486999 0.038869001 0.16013999
0.088278003 0.057464998 0.16542999
0.089051001 0.055728 0.16425
0.086689003 0.056488 0.16515
0.056595001 0.034784999 0.14910001
0.045022 0.036472999 0.15726
0.042784002 0.036862001 0.15897
0.065224998 0.032026999 0.14834
0.05748 0.0031190999 0.12566
0.046238001 0.032439999 0.15367
0.045192 0.032517999 0.15433
0.04414 0.033080999 0.15509
0.027383 0.040109001 0.16367
0.027164999 0.0396 0.16445
0.047510002 0.028646 0.14995
0.048425999 0.026144 0.14936
0.048057999 0.028388999 0.14946
0.057330001 0.035016 0.14856
0.057344999 0.033604998 0.14827999
0.069614001 0.050027002 0.15891001
0.070545003 0.050597001 0.15909
0.07034 0.04879 0.15877999
0.025875 0.043171 0.16631
0.074878 0.041243002 0.14864001
0.072545998 0.041613001 0.1507
0.049732 0.031785 0.15196
0.050228 0.032325 0.15373001
0.047410998 0.026996 0.14972
0.047951002 0.0017889 0.12538999
0.055381 0.011594 0.13723999
0.055080999 0.0107 0.13631999
0.053610999 0.011267 0.13744999
0.089203998 0.044284001 0.15906
0.089220002 0.045384999 0.15823001
0.044174999 0.0034908 0.1277
0.089008003 0.054795001 0.16314
0.088042997 0.054207001 0.16298001
0.088483997 0.056120999 0.16373999
0.062244002 0.021876 0.14311001
0.061767999 0.020243 0.14173
0.054416999 0.022360999 0.14508
0.054432001 0.022473 0.14339
0.053181998 0.022498 0.14388999
0.043187998 0.047798999 0.16661
0.090384997 0.058320001 0.16753
0.091606997 0.057904001 0.16729
0.092736997 0.056931 0.16687
0.067741998 0.058582999 0.16575
0.067290999 0.058042999 0.16453999
0.053291 0.045497999 0.15768
0.068446003 0.057183001 0.16283999
0.067915998 0.056616999 0.16229001
0.078575999 0.021755001 0.13584
0.077869996 0.021576 0.13768999
0.041324001 0.04696 0.16711999
0.040015001 0.047458 0.16842
-0.0083304998 -0.050264001 0.24279
0.029751001 0.045209002 0.16731
0.031229001 0.043504 0.167
0.029761 0.044964999 0.16709
0.040332999 0.022636 0.14757
0.040920999 0.021749999 0.14597
0.039756998 0.022988001 0.14740001
0.046466 0.0017702 0.12597001
0.046611998 0.0011207 0.12625
0.044925999 0.0019353 0.12613
0.049826 -0.0019823001 0.12329
0.040346 0.021466 0.14651
0.063376002 0.0054512001 0.12543
0.062867999 0.0059735999 0.12666
0.062579997 0.0073195002 0.1265
0.034662999 0.021978 0.14774001
0.034782 0.032706 0.15697999
0.033778001 0.032317001 0.15658
0.063697003 0.023607001 0.14478999
0.062781997 0.024456 0.14514001
0.052972998 0.043811001 0.15672
0.068805002 0.056476001 0.16179
0.068471998 0.05553 0.16144
0.070058003 0.055245999 0.16095001
0.067731999 0.053764999 0.16049001
0.069660999 0.053587999 0.15948001
0.069014996 0.052730002 0.15908
0.070880003 0.052106 0.15842
0.069812 0.052173998 0.15794
0.077873997 0.024455 0.13663
0.078073002 0.024262 0.13691001
0.076853 0.023945 0.13631999
0.076894999 0.022884 0.13594
0.076367997 0.025319001 0.13699999
0.077324003 0.026107 0.13753
0.046797998 0.0025124999 0.12617999
0.043016002 0.027965 0.15030999
0.042709999 0.026951 0.15139
0.041411001 0.02843 0.15216
0.048657 0.036407001 0.15448999
0.063465998 0.018890001 0.14084999
0.063948996 0.018377 0.14074001
0.063735999 0.014753 0.13147999
0.064732 0.013986 0.13099
0.085977003 0.057827 0.16638
0.056272998 0.0094871996 0.13456
0.05553 0.0082909996 0.13513
0.054575998 0.010025 0.13669001
0.041884001 0.029739 0.15083
0.036488 0.027675999 0.15154999
0.036378 0.027566001 0.15288
0.035884 0.028817 0.15291999
0.027310999 0.046252999 0.16654
0.028151 0.047481999 0.16686
0.028489999 0.046392001 0.16737001
0.044215001 0.025115 0.14741001
0.044771999 0.023313001 0.14732
0.043074001 0.024325 0.14837
0.075923003 0.027284 0.13868
0.074766003 0.026738999 0.13801999
0.074973002 0.028672 0.14003
0.076094002 0.028835 0.13979
0.070734002 0.050795 0.15710001
0.072053999 0.049194999 0.15671
0.072301 0.047945999 0.15538999
0.073841996 0.046562999 0.15346
0.074267998 0.031006999 0.14319
0.07525 0.029529 0.14082
0.075286001 0.029432001 0.14108001
0.073487997 0.032749001 0.14382
0.074170999 0.034166999 0.1441
0.073060997 0.033721998 0.14590999
0.043791 0.036148001 0.15719
0.035486002 0.039191999 0.16066
0.034290001 0.038304001 0.1608
0.034487002 0.039508998 0.16271
0.034499001 0.040890999 0.16264001
0.054046001 0.045635 0.15697999
0.054099001 0.044852 0.15884
0.035179 0.035739999 0.15812001
0.036415 0.035181999 0.15814
0.035982002 0.037124999 0.15902001
0.044789001 0.036226999 0.15783
0.045827001 0.036506999 0.15668
0.073908001 0.045068 0.15286
0.071687996 0.034738 0.14603999
0.039879002 0.014015 0.14081
0.031543002 -0.076228 0.17279001
0.074391 0.043432999 0.15211999
0.075291 0.042454001 0.15128
0.072775997 0.042295001 0.1503
0.075030997 0.040346 0.14984
0.07542 0.040387001 0.14839999
0.076361001 0.038802002 0.14707001
0.072228998 0.035491001 0.14698
0.071586996 0.037312001 0.14751001
0.069987997 0.038090002 0.14917
0.071493998 0.037705 0.14707001
0.052955002 0.023674 0.14541
0.042082001 0.030153001 0.15295
0.040394001 0.029371999 0.1534
0.054554 0.012565 0.13741
0.053746 0.013365 0.13861001
0.037496001 0.018774999 0.14659999
0.037609 0.017906999 0.1454
0.036594 0.019532001 0.14598
0.038068999 0.034529999 0.15776999
0.069672003 0.041756 0.15042999
0.070537001 0.040431 0.14937
0.077133998 0.037726 0.14693999
0.076760001 0.036208998 0.14532
0.034559999 0.027454 0.15267999
0.032496002 0.028654 0.15395001
0.033838999 0.026331 0.15098
0.077620998 0.034001999 0.14334001
0.078821003 0.033831999 0.14282
0.079107001 0.031888001 0.14137
0.078838997 0.030677 0.14120001
0.080009997 0.029816 0.13959999
0.066919997 0.051943999 0.15977
0.065693997 0.050499 0.16044
0.063744999 0.055025999 0.16159999
0.064920999 0.052439999 0.16046999
0.064906001 0.053362999 0.16075
0.080352999 0.027798001 0.13935
0.064269997 0.056775998 0.16394
0.017657001 -0.014418 0.1196
0.050524998 0.017911 0.14117
0.039370999 0.017093999 0.14317
0.037105002 0.016479 0.1434
0.081093997 0.027866 0.13876
0.068727002 0.051431999 0.15929
0.092926003 0.055822998 0.16531
0.088623002 0.059677001 0.16795
0.062633999 0.056570999 0.16366
0.089504004 0.058111001 0.16629
0.066850998 0.024201 0.14480001
0.068810001 0.023499001 0.14432999
0.06707 0.025246 0.14425001
0.092835002 0.053626999 0.16523001
0.029369 -0.037400998 0.15019999
0.033109002 -0.031364001 0.14975999
0.034134999 -0.032147001 0.1504
0.060258999 0.029185001 0.14772999
0.059707999 0.020776 0.14159
0.061758 0.011667 0.13025001
0.062849998 0.020852 0.14266001
0.044367 0.061333001 0.17072
0.093842998 0.052905999 0.16395999
0.093225002 0.051438 0.16253
-0.010782 -0.046526 0.24665999
-0.0086340001 -0.049649 0.24187
0.066202998 0.025588 0.14574
0.065739997 0.025404001 0.14560001
0.065733999 0.02716 0.14625999
0.094737999 0.052751001 0.16305
0.093846001 0.050023001 0.16231
0.055962 0.028271001 0.14871
0.056708001 0.025954001 0.14703999
0.056715 0.0261 0.14762001
0.067625999 0.026860001 0.14563
0.058026001 0.021477999 0.14346001
0.063363999 0.015281 0.13345
0.064666003 0.016545 0.13316999
-0.0093764998 -0.047589999 0.2439
-0.0085164998 -0.048459001 0.24265
0.033475999 0.03018 0.15496001
0.094522998 0.050549001 0.16351999
0.093918003 0.048618998 0.16212
0.069266997 0.059399001 0.16591001
0.069663003 0.057746001 0.16415
0.069243997 0.055583999 0.16247
0.070869997 0.054983001 0.16094001
0.070508003 0.053986002 0.1594
0.071639001 0.052547999 0.15783
0.071808003 0.050774001 0.15712
0.072208002 0.049734998 0.15586001
0.049791001 0.049977001 0.16131
-0.0084771998 -0.048668999 0.24399
0.078314997 0.01984 0.13799
0.076439999 0.020283001 0.13663
0.073173001 0.047922 0.15534
0.073573001 0.047164999 0.15471999
0.074348003 0.046112001 0.15404999
0.075391002 0.044654999 0.15297
0.075576 0.042615999 0.15146001
0.075828001 0.041437 0.14975999
0.076682001 0.040096998 0.14859
0.042817 0.045343 0.16508
0.040720999 0.045648001 0.16647001
0.077111997 0.038662001 0.1479
0.055858999 0.011874 0.13756
0.056495 0.011295 0.13687
0.056065999 0.020527 0.14223
0.054763999 0.019090001 0.14272
0.054839 0.021134 0.14393
0.074764997 0.035052001 0.1446
0.070299 0.013792 0.13026001
0.067909002 0.021731 0.13684
0.052533999 0.041196 0.1532
0.051941 0.042072002 0.15458
0.048719998 0.05243 0.1621
0.077752002 0.037668999 0.14644
0.047573 0.051008001 0.16243
0.077535003 0.036431 0.14557
0.079198003 0.035112001 0.14516
0.080173999 0.033868 0.14313
0.079999 0.032572001 0.14191
0.080658004 0.031374998 0.14122
0.046923999 0.031166 0.15287
0.044739 0.030636 0.15272
0.088771999 0.049474999 0.16034
0.087016001 0.048707001 0.15941
0.087825999 0.051043 0.15894
0.032850999 0.050809 0.16816001
0.034127999 0.050175998 0.16754
0.033794001 0.049591001 0.16913
0.087957002 0.052622002 0.1613
0.088822 0.050521001 0.15993001
0.086782001 0.052053999 0.15972
0.032017998 0.052576002 0.16674
0.031095 0.053801 0.16698
0.031032 0.054219998 0.16788
0.080292001 0.029647 0.13939001
0.081547 0.028391 0.13875
0.081926003 0.028408 0.13811
0.049899999 0.0041414001 0.12688001
0.050421 0.002904 0.12624
0.056752998 0.037418999 0.15029
0.055339001 0.038261 0.15128
0.040782001 0.0099571999 0.13781001
0.075897999 0.023713 0.13579001
0.047965001 0.061593 0.17007001
0.049067002 0.060743 0.16948
0.048866998 0.059218999 0.16805001
0.050147999 0.057344001 0.16694
0.049141001 0.055442002 0.16584
0.07508 0.025376 0.1372
0.095801003 0.048397999 0.16275001
0.033898 0.044874001 0.16557001
0.033404 0.043823998 0.16537
0.031755999 0.04544 0.16613001
0.095737003 0.047603 0.16308001
0.072954997 0.030114001 0.14013
0.043644 0.041852999 0.16246
0.058024999 0.00078648003 0.12352
0.056508999 0.0077646002 0.12763
0.055984002 0.0073410999 0.12819999
0.050333999 0.055484999 0.16486999
0.051134001 0.054841001 0.16346
0.049157999 0.055025 0.16531999
0.051456999 0.053759001 0.16234
0.054784998 0.046849001 0.15983
0.053291999 0.048464 0.15948001
0.063910998 0.035936002 0.14782
0.024568999 0.045403 0.1661
0.076858997 0.022174001 0.1362
0.026085 0.047157999 0.16543999
0.076465003 0.022856001 0.13544001
0.066147998 0.014942 0.13233
0.058345001 0.022448 0.14474
0.061043002 0.013247 0.13157
0.059216999 0.034311999 0.14805999
0.058921002 0.034145001 0.14848
0.056953002 0.035439 0.1489
0.073391996 0.030982001 0.14362
0.056958999 0.020862 0.14308
0.057496998 0.022670999 0.14381
0.062682003 0.026471 0.14639001
0.063505001 0.025836 0.14644
0.056772001 0.023831001 0.14565
0.056685999 0.024304001 0.14601
0.060043 0.033415001 0.14844
0.060509998 0.031679999 0.14858
0.058699999 0.033599 0.148
0.061321001 0.030861 0.14904
0.059657 0.030378001 0.14794999
0.059788 0.031810001 0.14811
0.071983002 0.032547001 0.14429
0.062417999 0.021849999 0.1432
0.068957001 0.053227998 0.1591
0.074876003 0.026834 0.13857999
0.074483998 0.026862999 0.13929
0.052611999 0.051428001 0.16146
0.052747 0.050445002 0.15972
0.052522 0.049837001 0.15887
0.060550999 0.011804 0.12958001
0.062353 0.0078528002 0.12853
0.061432 0.010374 0.12894
0.061119001 0.016140999 0.13955
0.060674999 0.015337 0.13862
0.059218001 0.016565001 0.13974001
0.06027 0.015302 0.13808
0.061345998 0.013295 0.1382
0.055562001 0.040561002 0.15167999
0.056389 0.04135 0.15196
0.056056999 0.039983999 0.15105
0.058532 0.016974 0.14018001
0.057546001 0.038093999 0.14993
0.05514 0.041398998 0.15350001
0.056979999 0.03988 0.15090001
0.057590999 0.036658 0.14772999
0.057509001 0.036345001 0.14925
0.058455002 0.035404999 0.14864001
0.072048001 0.033700999 0.14584
0.036465 0.025002999 0.14993
0.064094 0.024862999 0.14494
0.062311999 0.025386 0.14498
0.071726002 0.035073001 0.14568
0.064525001 0.023007 0.14388999
0.063712001 0.022638001 0.14391001
0.064898998 0.022716001 0.14266001
0.065820999 0.020817 0.14151999
0.063905001 0.021631001 0.14204
0.064125001 0.019854 0.14222001
0.064089 0.019305 0.14072999
0.061935 0.030424999 0.14884
0.061189 0.02909 0.14907999
0.069573998 0.036894001 0.14754
0.070311002 0.036015 0.14667
0.057585999 0.0023755999 0.12416
0.062100999 0.028816 0.14726
0.055312 0.024383999 0.14539
0.055881999 0.026689 0.14812
0.043639001 0.0019710001 0.12655
0.045558002 0.055764999 0.16733
0.045212999 0.053427 0.16729
0.047116 0.051259 0.16383
0.046603002 0.050312001 0.16485
0.044395 0.053805999 0.16812
0.059005 0.019111 0.14155
0.058945999 0.020037999 0.14253999
0.066959001 0.0081653995 0.12774999
0.069381997 0.038311001 0.14848
0.061686002 0.02265 0.14376
0.069674 0.040708002 0.14955001
0.067157999 0.01616 0.13311
0.066513002 0.015483 0.13221
0.065782003 0.016391 0.13376001
0.066476002 0.018836999 0.13518
0.066018 0.017281 0.13338
0.068937004 0.041216001 0.15001
0.054713 0.029959001 0.14945
0.054251999 0.031665001 0.15071
0.066088997 0.011494 0.1285
0.064534999 0.012088 0.12988
0.064153001 0.052700002 0.16162001
0.068033002 0.013892 0.13108
0.066877998 0.014772 0.13169999
0.068455003 0.012974 0.13018
0.053695001 0.031681001 0.15083
0.053357001 0.030187 0.15019
0.035781 -0.024783 0.1495
0.033743002 -0.024835 0.14961
0.027718 -0.017058 0.11757
0.013611 -0.066036999 0.178
0.013295 -0.066316001 0.17921001
0.011593 -0.0097081997 0.15398
0.011997 -0.0091660004 0.15409
0.037025999 0.058773998 0.16956
0.013692 -0.077413 0.17416
0.037618998 0.057484999 0.16913
0.095265999 0.044969998 0.16045
0.038674999 0.056031 0.16760001
0.039062999 0.054597002 0.16827001
0.037739001 0.055148002 0.16764
0.054761998 0.027518 0.14873999
0.063529 0.053001001 0.16117001
0.062385999 0.054473002 0.16047999
0.062086999 0.055349 0.16231
0.054862998 0.040410001 0.15226001
0.054397002 0.041154001 0.15355
0.070367999 0.058908999 0.16449
0.066133998 0.022544 0.14252
0.043692 0.041965999 0.16143
0.043083999 0.040484 0.16026001
0.042511001 0.04115 0.16298001
0.069182001 0.011218 0.12988999
0.060943 0.033920001 0.14711
0.060865998 0.035149001 0.14776
0.022035001 -0.081387997 0.17321999
0.020996001 -0.079411998 0.17268001
0.021055 -0.079692997 0.17273
-0.0035504 -0.025369 0.15984
0.048962001 -0.0040592002 0.12309
0.0046414002 -0.071625002 0.18395001
0.039648 0.053509999 0.16940001
0.038516 0.052662 0.16899
0.053771 0.02836 0.14989001
0.038571998 0.032717001 0.15651
0.036637999 0.032212 0.1558
0.037014998 0.034224 0.15716
0.030562 0.035174001 0.1602
0.069701999 0.057000998 0.16254
0.071107 0.055174999 0.16091999
0.071909003 0.054219998 0.15973
0.072819002 0.053314999 0.15861
0.072985001 0.051552001 0.15688001
0.072589003 0.049598999 0.15606999
0.066973001 0.020998999 0.14269
0.074754998 0.048919 0.15547
0.075117998 0.047952 0.15458
0.075534999 0.046418 0.15415999
0.076081 0.045288999 0.15255
0.076707996 0.043859001 0.15188
0.076635003 0.041875999 0.15068001
0.077136002 0.040550999 0.14985999
0.076981999 0.039771002 0.14887001
0.078782998 0.037195999 0.14757
0.094379999 0.045710001 0.16156
0.036499999 0.024103001 0.14974
0.031676002 -0.014477 0.11915
0.0020004001 -0.065651 0.18421
0.0021693001 -0.067216001 0.18419001
0.0039578001 -0.069342002 0.18344
0.0040714 -0.068961002 0.18318
0.041719999 0.043559 0.16336
0.04002 0.052466001 0.16986001
0.038736001 0.052281 0.16892999
0.01408 -0.076978996 0.17463
0.054019999 0.030565999 0.15123001
0.063266002 0.040380001 0.1515
0.078952 0.037485 0.14534999
0.035365999 0.02706 0.15173
0.080847003 0.035583999 0.14489
0.080165997 0.034366 0.14320999
0.046865001 0.030130999 0.15136001
0.046162002 0.029191 0.15206
0.080164 0.033394001 0.14228
0.081253998 0.032586999 0.14184999
0.082047999 0.030526999 0.14
0.082451999 0.028871 0.14021
0.0029157 -0.036509998 0.15482
0.058426999 0.032729998 0.14917
0.077762 0.026817 0.13809
0.078688003 0.025463 0.13688999
0.017433001 -0.018124999 0.14932001
0.016956 -0.018234 0.14956
0.043113001 0.026854999 0.14963999
0.043287002 0.02558 0.14951999
0.0039814999 -0.067240998 0.18363
0.0042301002 -0.06904 0.18404999
0.0037837999 -0.068951003 0.1824
0.0059413998 -0.069453999 0.18251
0.041657001 0.041494001 0.16252001
0.041712999 0.039196 0.16111
0.040982001 0.050769001 0.16872001
0.039843 0.051268999 0.16933
0.052962001 0.033018999 0.15129
0.070669003 0.017550001 0.1337
0.05367 0.017694 0.14122
0.052457999 0.016388999 0.14049999
0.045846999 0.0080569005 0.13649
0.061602 0.038663 0.15044001
0.061981998 0.037659999 0.1494
0.066082001 0.0097482 0.12812001
0.048172001 0.030399 0.15202001
0.049265999 0.029049 0.15104
0.045465 0.012197 0.13964
0.071943 0.043016002 0.15129
0.054699 0.038594998 0.15087999
0.072927997 0.027093001 0.13962001
0.041556999 0.0071863001 0.13575999
0.052228998 0.034791 0.15109999
0.088128 0.046849001 0.15823001
0.052322 0.035482001 0.15142
0.071772002 0.031566001 0.14635
0.072439 0.03063 0.14574
0.073018998 0.02892 0.14433999
0.036214001 0.037211999 0.15945999
0.0075865998 -0.071078002 0.18141
0.0046986998 -0.065912001 0.18312
0.0050478 -0.067929998 0.18307
0.0054760999 -0.068444997 0.18286
0.0062199002 -0.070107996 0.18226001
0.041416999 0.049603999 0.16948999
0.051587 0.033697002 0.15106
0.052510999 0.031861998 0.15161
0.067226999 0.028806999 0.14827
0.064668 0.030051 0.14765
0.064039998 0.017631 0.13953
0.064984001 0.019422 0.14151999
0.071342997 0.058435 0.16436
0.071016997 0.032942001 0.14655
0.071254998 0.057270002 0.16253
0.048819002 0.027396001 0.15051
0.070352003 0.034332 0.14629
0.069393001 0.034828998 0.14658999
0.072709002 0.056581002 0.16166
0.073642001 0.054898001 0.15978
0.073105 0.053022001 0.15829
0.073507003 0.051948 0.15715
0.069657996 0.036681999 0.14737999
0.074294999 0.050896998 0.15657
0.069278002 0.037698001 0.14809
0.092142999 0.049883999 0.16175
0.091527998 0.051380001 0.16106001
0.034561999 0.049135 0.16913
0.075015999 0.049426001 0.15637
0.076302998 0.047850002 0.15463001
0.073849998 0.0262 0.13807
0.075952001 0.048248999 0.15421
0.077200003 0.045260001 0.15322
0.077413999 0.044512 0.15141
0.078174002 0.042707 0.15138
0.067932002 0.040196002 0.15015
0.078619003 0.041034002 0.15121999
0.067721002 0.038635001 0.14844
0.078460999 0.040867001 0.14938
0.079028003 0.039333999 0.14760999
0.079728998 0.037385002 0.14669999
0.062683001 0.053018998 0.16168
0.063713998 0.051061999 0.161
0.074276999 0.018402001 0.13449
0.0070257001 -0.067970999 0.18235999
0.0074966 -0.068729997 0.1823
0.028198 -0.021667 0.14816999
0.0079603 -0.071970001 0.18118
0.051431 0.034820002 0.15222999
0.027218999 0.048551999 0.1662
0.027496001 0.049056999 0.16683
0.047497999 0.030801 0.15234999
0.041545998 0.0086070001 0.13699999
0.080403998 0.035179999 0.14500999
0.081624001 0.035188001 0.14401001
0.082287997 0.034281 0.14277001
0.061620999 0.054793 0.16166
0.062254999 0.054115001 0.16137999
0.082713 0.032288998 0.14192
0.083365001 0.030807 0.14054
0.083756998 0.029639 0.14102
0.047256 0.037946001 0.15647
0.047756001 0.036929999 0.15566
0.037746001 0.016115 0.14222001
0.037751 0.015125 0.14173
0.034274001 0.031307001 0.15541001
0.075839996 0.021607 0.13523
0.074891001 0.022803999 0.13692001
0.074575 0.02317 0.13541999
0.073492996 0.025038 0.13718
0.047630999 0.013583 0.13942
0.049167 0.012728 0.13912
0.047449999 0.014093 0.13937999
0.052228998 0.019650999 0.14293
0.05325 0.019145999 0.14201
0.052092001 0.019704999 0.14237
0.092968002 0.056442998 0.16743
0.053355001 0.049902 0.16017
0.0071447999 -0.068517998 0.18244
0.0074526002 -0.068671003 0.18174
0.0097463001 -0.070395 0.18003
0.010043 -0.071772002 0.17942999
0.0097016999 -0.072829999 0.17958
0.022957999 -0.017353 0.1183
0.050903998 0.035997 0.15268999
