# .PCD v0.7 - Point Cloud Data file format
VERSION 0.7
FIELDS x y z
SIZE 4 4 4
TYPE F F F
COUNT 1 1 1
WIDTH 1409
HEIGHT 1
VIEWPOINT 0 0 0 1 0 0 0
POINTS 1409
DATA ascii
0.044831999 -0.0040505999 0.0064411
0.044826999 -0.0027298999 0.0078547001
0.0084998999 0.0063721002 0.030234
-0.055762999 -0.021482 0.0033440001
0.055684999 0.032157999 0.015772
-0.039193001 -0.029455001 -0.013641
-0.04053 -0.029687 -0.01365
-0.039205998 -0.029687 -0.014994
-0.041862 -0.039547 0.014516
0.052173998 0.027367 0.017829999
0.042638998 0.045453999 0.040559001
0.043506 0.044445001 0.040137999
-0.032522 -0.028256999 -0.015001
-0.033856999 -0.028399 -0.014975
0.09042 0.039404999 0.010097
0.020834999 -0.025986001 0.033572
0.095728002 -0.0065122 0.015815999
0.096740998 -0.0062441998 0.015541
-0.047642998 -0.012793 -0.01162
0.045931 -0.039600998 -0.013729
0.038291998 -0.014821 0.0091279997
0.066694997 0.036855001 0.026867
-0.0096989004 -0.036139999 -0.041473001
-0.010886 -0.035872001 -0.041281998
-0.067782998 -0.013924 -0.011888
0.020841001 -0.0030715 0.016155999
0.021050001 -0.0035937999 0.01554
0.047908001 -0.011709 0.0061468999
0.04363 -0.031133 -0.0042730002
0.046875 0.0089670001 0.0073898002
-0.037861999 -0.040312 -0.048493002
-0.037859999 -0.040275998 -0.049888
0.086577997 -0.0086000003 0.015029
-0.043200001 -0.036424998 -0.049903002
0.042528 0.014602 0.026698999
0.050344002 -0.036763001 -0.016096
0.0059270998 -0.019047 0.034937002
0.0056002 -0.018157 0.035324998
0.044980999 -0.039414 -0.0055926
0.039620001 0.0094627999 0.010279
0.039620001 0.0081085004 0.010193
0.058407001 0.032846998 0.0099942004
0.076966003 0.0037103 0.012035
-0.053902 -0.0094573004 -0.012336
-0.054841999 -0.0091378996 -0.011892
0.052030001 0.01302 0.035397999
-0.053732999 -0.036623001 0.0091755996
-0.053091001 -0.035898998 0.0091495002
-0.037487 -0.028945001 -0.013119
-0.036451999 -0.028820001 -0.013547
0.025553999 -0.026299 0.0044133998
0.041423 0.027511001 0.0068569998
0.034286998 -0.031155 -0.0055983001
0.034281999 -0.032389 -0.0069434
0.033895001 -0.031732 -0.0062218001
-0.019529 -0.035528 0.016077001
-0.019370999 -0.035477001 0.017165
0.053514998 0.012254 0.0044987001
0.055048 0.001726 0.038047001
0.049509 0.023868 0.015356
0.049275 0.022893 0.015648
0.087734997 2.8824999e-05 0.019727999
0.029827001 -0.014915 0.055877998
0.047005001 0.033151001 0.039448999
0.051511001 -0.016039001 0.014503
0.059668001 0.022946 0.0076913
0.022499001 0.00038111 0.02823
-0.012449 -0.036527999 -0.033688001
-0.011124 -0.036600001 -0.035156
-0.01248 -0.036192 -0.035140999
0.053544 -0.0066839 0.036003999
0.053525999 -0.0055677998 0.035815999
0.022264 -0.039179001 -0.0042109
0.046891998 0.018297 0.024308
0.067723997 -0.0013488 0.021244001
0.067169003 -0.0022648999 0.019926
0.026288001 -0.039983001 0.059811998
0.027541 -0.039889999 0.059009999
0.027515 -0.039919 0.059723001
-0.031167001 -0.0013674001 -0.022975
0.064326003 0.034425002 0.012712
0.085782997 0.012998 0.012475
0.047619 -0.034965001 -0.012329
0.046824999 -0.034522999 -0.012824
-0.033964001 -0.010557 -0.027387001
-0.033080999 -0.009908 -0.027566001
-0.033109002 -0.010272 -0.027634
-0.050365999 -0.019205 -0.0059071998
0.043540001 -0.031404 0.053961001
0.026984001 -0.016804 0.00038121999
-0.063253 -0.02024 -0.021745
-0.062628999 -0.019629 -0.022374
-0.041250002 -0.035681002 -0.050606001
0.055031002 0.0099871997 0.031160999
-0.092580996 0.027215 -0.017397
-0.024955001 -0.023792 -0.02524
-0.035388999 -0.028042 -0.0098601002
-0.034928001 -0.027336 -0.0094050001
0.023258001 -0.027828 0.0037088001
0.022260999 -0.028256999 0.0037888
-0.0085369004 0.016507 0.011945
-0.0089181 0.016805001 0.011003
0.071532004 0.0060699 0.027244
0.048721999 0.011207 0.035372
0.061023001 0.033613998 0.014548
0.021500001 -0.023545001 0.036595002
0.055381 0.03057 0.0083411997
0.018115999 -0.012013 -0.0069122999
0.014826 -0.023166999 -0.0014693
0.087742001 0.0052224998 0.011008
-0.030751999 -0.009602 -0.0047300002
-0.0020458 -0.0013276 -0.010938
0.00020352 -0.0032249 -0.0062613999
0.051709998 0.025781 0.023536
-0.044546001 -0.033987001 -0.032432999
0.076062001 0.031202 0.021112001
-0.046342 -0.019678 -0.028873
0.037531 -0.018193001 0.0098829996
-0.036793999 -0.026945001 -0.036449999
-0.060279999 0.00027610999 -0.01457
0.033707999 -0.022311 0.011135
-0.023184 -0.021407999 -0.0098000001
-0.023102 -0.022066999 -0.0105
-0.035068002 -0.024257001 -0.032540999
0.00019276 -0.0073817 0.0018783
0.0091762999 0.0068803001 0.015790001
0.024922 -0.031039 0.001946
0.045763999 -0.035776 -0.014283
0.039069001 0.01137 0.028000999
-0.015295 -0.040346999 -0.051236
0.052478999 0.0045727999 0.0057215998
0.053025998 0.0041005998 0.0068592001
-0.070338003 0.035477001 -0.019547001
0.039995 -0.031806 0.052861001
-0.037868999 -0.0067643002 -0.022957001
-0.037772 -0.0054738 -0.022515999
0.058796 0.014419 0.032370999
-0.049297001 -0.024259999 -0.032813001
-0.049297001 -0.023153 -0.032907002
0.049924001 -0.021114999 0.027814999
-0.024253 -0.023521001 -0.011724
0.0030419 0.016984999 0.017352
0.0032438999 0.016055999 0.016066
0.031649001 -0.027589001 0.029297
-0.057647001 -0.0092799002 -0.0094838003
0.086443 0.0040791999 0.018616
-0.023148 -0.038711 -0.039260998
0.023419 0.0036013999 0.024046
0.059804998 -0.0043927999 0.010286
-0.055406 -0.037280001 0.0081262002
-0.055094998 -0.036782999 0.0075460998
0.084719002 0.038107999 0.01316
0.0089247003 0.0098241996 0.025606001
0.0088988002 0.0091290995 0.026565
-0.067764997 0.029655 -0.018794
-0.067841999 0.031005999 -0.018626001
-0.048539001 -0.028294001 -0.0015691
0.027448 -0.029717 -0.0079298997
0.070433997 0.036738001 0.026205
0.069339 0.036083002 0.025882
0.023353999 -0.0034572 0.016674999
0.016138 -0.017646 0.00021576
-0.027171001 -0.036495 0.0090544997
0.048161998 -0.038534999 0.067699999
0.048953999 -0.039136998 0.066889003
0.029046001 -0.018030999 0.053723998
0.028951 -0.018452 0.053803001
0.051615 0.0040683001 0.036006998
-0.070780002 -0.011774 -0.019882999
-0.070863999 -0.0121 -0.019071
-0.053254001 -0.027667999 -0.023793999
0.069017 0.033684999 0.022589
0.10204 -0.0025966 0.014284
0.040399998 0.016562 0.0070090001
-0.033112001 -0.023002001 -0.031819001
-0.033783 -0.02293 -0.032451998
0.086727999 0.0094485004 0.014575
-0.040706001 -0.0089028003 -0.014479
-0.053723 -0.027841 -0.015202
0.069408 0.035130002 0.025818
0.078961998 0.035843998 0.0072130002
0.01585 -0.020289 0.0025124999
-0.013811 -0.040282 -0.051258001
-0.085487001 0.035486002 -0.01654
-0.085502997 0.035436999 -0.017552
-0.033868998 -0.037611999 0.0092040002
-0.033755999 -0.038275 0.010201
0.023484999 -0.033897001 -0.0073405998
0.024444001 -0.034258001 -0.0075413999
0.038704 -0.029052 0.055907
0.023458 -0.034765001 -0.0070337001
0.042279001 -0.031044999 -0.0069443998
-0.025045 -0.023622001 -0.011613
0.086746998 0.040084001 0.014373
-0.052274998 -0.022588 -0.027821001
-0.026953001 0.0050804 -0.0097013004
-0.027006 0.0053651999 -0.010957
0.059041999 0.016257999 0.034022
0.083719 0.023159999 0.0066030002
0.082354002 0.02299 0.0064448002
0.084306002 0.039855 0.02155
0.016891999 -0.016278001 0.040107999
0.070455998 0.0067411 0.026682001
0.032942999 -0.039503001 0.060151
-0.073215 -0.0059321998 -0.016385
-0.0096421 -0.0079642003 0.026495
-0.01002 -0.0083013 0.025408
0.0044987998 -0.00075756002 0.035271998
0.050294001 0.020253999 0.019854
0.049524002 0.021443 0.020331999
0.013214 -0.023708999 0.034124002
0.08055 0.038649 0.016848
0.081817999 -0.0031963999 0.0095491996
-0.043230999 -0.016845999 -0.030421
-0.056437001 -0.025629001 0.0065257
-0.055936001 -0.026442001 0.0057307002
-0.056049999 -0.026639 0.0066276002
0.060718 -0.032984 0.058060002
0.060150001 0.027442999 0.031207999
0.031587001 -0.011196 0.0082443999
0.058334 0.0054100002 0.0064943
0.058350001 0.0040532001 0.0065938001
-0.016003 0.017376 -0.00059494999
-0.066940002 0.0055787 -0.019014001
-0.049015 -0.023093 -0.0044088
-0.049056999 -0.023218 -0.0053055999
0.026239 -0.0015793 0.030502999
0.026261 -0.0020852999 0.031144001
-0.081889004 0.02431 -0.014532
-0.082562998 0.024475001 -0.014305
0.050202999 0.016356001 0.029348999
-0.044440001 -0.026396999 -0.046409
0.056979999 0.033516001 0.011849
-0.019296 0.013315 -0.013494
-0.020675 0.013105 -0.014628
-0.02043 0.013699 -0.013701
0.083784997 0.022468001 0.0074596
-0.06346 -0.019275 -0.022195
0.090186 -0.0073405998 0.0085909003
0.062345002 0.020246999 0.0073755002
0.018989 -0.0087502003 0.039382
0.051353 0.025258999 0.022723
0.015967 0.00033471 0.018178999
0.045726001 0.012716 0.023892
0.070313998 0.0013185 0.030616
0.070056997 0.00064697 0.029868999
0.070139997 0.00062733999 0.030298
0.081772 0.010242 0.020346999
-0.026857 -0.027461 -0.021821
0.050533999 0.035909999 0.035741001
0.088233002 0.025022 0.011421
0.089066997 0.025335001 0.010513
0.044744 -0.031541999 -0.0043559
0.039476998 -0.014796 0.042716999
0.040128998 -0.014823 0.041724999
0.039531 -0.013519 0.042688001
-0.00021406999 -0.0082093999 0.0023880999
0.00038836 -0.0076096999 0.0027445001
0.053002998 -0.03805 0.061496001
0.052997001 -0.037976999 0.060143001
0.054313 -0.038075 0.060162
0.024727 -0.014032 0.00031298
-0.025010999 0.010085 -0.018267
-0.025984 0.0097407 -0.017732
-0.025394 0.010298 -0.017415
-0.045887001 -0.0080533996 -0.021829
0.028244 0.0033982999 0.023193
-0.025246 -0.0090733999 0.00051186001
0.089215003 0.039498001 0.0091533996
0.089984 0.03867 0.0082016997
0.086608 0.030592 0.0055024
-0.054618001 -0.026423 0.0029463
-0.054859001 -0.026807999 0.0038978001
0.0037298 0.0014554 -0.00034393999
-0.081707001 0.029762 -0.015082
0.034286998 -0.010776 0.0087497002
0.022271 -0.010426 0.0038035
0.023394 -0.011071 0.0038606001
0.033762001 -0.027473999 0.05979
-0.072687998 -0.0067568002 -0.017679
-0.073091 -0.0056481999 -0.017773001
-0.012439 -0.010407 0.013179
-0.01114 -0.010885 0.01319
0.040677 0.0057637999 0.01565
0.042307999 -0.0040551 0.0093935002
-0.017759999 -0.034589998 0.012149
-0.012837 -0.017282 -0.012409
0.043326002 0.041475002 0.042125002
0.042854998 0.040454999 0.042089999
0.066344999 0.017548 0.0068974998
0.066419996 0.019004 0.0072979
0.066987 0.018164 0.0071677999
0.061416 0.0052986001 0.0072471001
-0.03376 -0.028760999 -0.016240999
-0.034263 -0.029069001 -0.016697001
-0.033955999 -0.029236 -0.017727001
0.083871 -0.012367 0.0099964002
-0.022391999 -0.0069718999 0.0043808999
0.044403002 -0.0014444001 0.0087243998
0.057771999 0.029077999 0.031410001
-0.0079509001 -0.0089817997 0.027453
-0.02049 -0.0040493002 -0.025846999
0.018337 -0.027762 0.020142
0.014804 -0.025612 -0.0026004
0.035470001 -0.0072057 0.039641
0.085065 0.040683001 0.0077511999
-0.021862 -0.019927001 -0.0086000003
0.038325001 -0.0010944 0.034991
0.011569 -0.0040382999 0.037491001
0.085106 0.0054402999 0.015690001
0.058341999 0.031064 0.0090843998
-0.013817 -0.040164001 -0.045850001
0.038125001 -0.031449001 0.052634001
0.044893999 -0.018495999 0.01214
0.045756001 -0.018297 0.012425
-0.067224003 0.0054092999 -0.013607
-0.065987997 0.0051660999 -0.014894
0.027775001 -0.011842 0.056191999
0.027494 -0.011256 0.054717001
0.036324002 -0.025136 0.049217999
0.036145002 -0.024148 0.049679998
0.022104001 0.001133 0.027737999
0.085058004 0.0067520002 0.011493
-0.081059001 0.015743 -0.015732
-0.025518 0.0093646003 -0.015162
-0.025779 0.0081230002 -0.014998
-0.043191001 -0.030076001 -0.015015
0.086686 0.027303001 0.0043835999
0.044172 0.015663 0.019106001
0.043976001 0.015792999 0.019955
0.023314999 -0.037365999 0.057907999
-0.001106 0.0019785 -0.010321
0.018331001 -0.023914 0.035749
0.045194 0.025967 0.011498
-0.067432001 0.020218 -0.013995
-0.0036593999 -0.015349 0.025532
-0.06191 -0.0067316 -0.0090583004
0.081041999 0.0040548001 0.0060624001
0.031344 0.0029449 0.013155
-0.047307 -0.018983999 0.0062620998
-0.047741 -0.018096 0.0059175999
-0.0059520002 -0.013859 0.017157
0.030269001 -0.026977999 0.062387001
0.031682 -0.024727 0.014106
0.030525001 -0.024862999 0.013987
0.094164997 0.031969 0.0043175002
0.024731999 -0.012603 0.0026000999
-0.015719 -0.038339999 0.019127
0.017805999 -0.025981 0.0055693001
-0.051008001 -0.022933001 -0.036449999
-0.025787 -0.027392 -0.017650999
-0.026544999 -0.027647 -0.017171999
0.032503001 -0.038380001 0.0016621
-0.087371998 0.046886001 -0.012581
-0.088072002 0.046661001 -0.012642
0.034012999 -0.00083093002 0.031083999
-0.072617002 0.014843 -0.013942
0.039186001 -0.025072001 0.016442999
-0.039296001 -0.02784 -0.0084372004
0.027004 -0.025010001 0.0047567999
-0.029857 -0.033374 0.010123
0.079692997 0.0027679999 0.022383999
0.080216996 0.0021166999 0.021864999
-0.033401001 -0.027302001 -0.028889
0.083723001 -0.0026946 0.0053980001
0.063193001 -0.033034001 0.059565
0.062252998 -0.032977998 0.059661999
0.044232 -0.037085999 0.054136999
-0.056612 -0.037586 0.0078536998
0.029141 -0.0275 0.047733001
0.027432 -0.027488001 0.047605
0.028946999 -0.026998 0.046735998
0.055829 0.028014001 0.026744001
0.046664 0.032442998 0.040371001
-0.049504999 -0.021078 0.0096971001
-0.018565999 0.0088910004 0.015624
-0.01832 0.0084058996 0.016259
-0.055264998 -0.037808001 0.0038068001
0.042141002 0.017653 0.0080616996
0.041002002 0.016240999 0.0077451998
0.024916001 -0.033739001 0.0014975
0.028299 -0.026216 -0.0037624
0.066349998 2.7695e-05 0.029254001
0.089769997 0.00075642997 0.0057271998
0.049621001 0.016889 0.033344999
0.046326 -0.036419 -0.014878
0.045226 -0.036591001 -0.014588
0.033025 0.0014089 0.029317001
0.062043998 0.034448002 0.018027
0.08117 0.022808 0.011025
0.080311 0.022422001 0.01117
-0.020536 -0.036524002 0.0081858002
-0.020114001 -0.035909999 0.0087130005
-0.021632001 0.011064 -0.016745999
-0.02203 0.010599 -0.017269
0.069197997 0.0013565 0.02124
-0.015181 -0.035147998 -0.035108998
-0.0012463999 -0.0047765998 -0.0062230998
-0.0013378999 -0.0040571 -0.0068934001
-0.0012477 -0.0045334999 -0.0061626998
0.016542999 -0.0032154 0.015014
-0.045894001 -0.024356 -0.043113999
-0.04721 -0.024305999 -0.043118
-0.011348 0.0089886002 -0.013488
0.022049 -0.027551999 0.031090001
-0.014871 -0.035863999 -0.039916001
-0.0075555998 -0.038571998 -0.049281999
-0.0073882998 -0.037965 -0.049295999
0.057193 0.031890001 0.016727
0.022349 -0.0067035998 0.038185999
0.022124 -0.0068453001 0.037905
-0.033225998 -0.011321 -0.02912
0.016884999 -0.020001 -0.0029611001
-0.025506999 -0.039833002 0.027796
0.063671999 0.043175001 0.028963
0.042010002 0.03104 0.038713001
0.042552002 0.029725 0.038679
0.072530001 0.012272 0.0043627
0.072376996 0.01134 0.0044200998
0.090461001 0.037845999 0.0077097998
0.090988003 0.037032001 0.0072472999
0.034368001 -0.036362 0.062387999
0.035626002 -0.036442 0.06284
-0.051971 -0.027691999 -0.012639
0.075681999 0.0079004001 0.0066184001
-0.010416 0.011507 -0.0090626003
-0.010834 0.0113 -0.0098783998
-0.027193001 -0.031176001 0.014588
0.081538998 -0.015944 0.010978
0.081350997 -0.014743 0.010764
0.029510001 -0.030474 -0.0061169998
0.028946999 -0.026974 0.0625
-0.015115 0.011677 -0.011846
-0.016352 0.011179 -0.012647
-0.026393 -0.027694 -0.018031999
0.023162 -0.026366999 0.0072858999
0.047658999 0.00098261004 0.034155998
0.058143001 0.0093098003 0.035571001
0.0093659004 0.0059771999 0.029656
0.071710996 0.0093876999 0.0067400001
-0.039480001 -0.030921999 -0.038938999
0.027644999 -0.023003999 -0.0015465
0.061687998 -0.037101999 0.058134001
0.071402997 0.0039776 0.023798
0.070280999 0.0042726998 0.025215
-0.0083394004 -0.013139 -0.013728
-0.048409 -0.025993001 -0.045573998
0.050393 -0.039471999 -0.010651
0.050283 -0.040180001 -0.011147
-0.031941 -0.038713001 0.025177
-0.0058033001 -0.011067 0.0078172004
-0.0071196998 -0.01092 0.0064833001
0.062751003 -0.008409 0.025341
0.030687001 -0.026694 0.054710001
-0.053412002 -0.018751999 -0.0061661
-0.053188 -0.019494999 -0.0062667001
-0.052561998 -0.018865 -0.0058598001
-0.019265 0.0092901997 -0.016076
0.054345001 -0.034979999 0.0037686999
0.0033092001 0.013422 0.014654
0.073608004 0.013246 0.025899
0.049966998 -0.034251001 0.0013974
0.057009999 -0.038936 0.064185999
-0.047722999 -0.013679 0.0033062
0.051642001 0.012168 0.032168999
-0.015688 -0.0086327996 0.01216
-0.045442998 -0.027784999 0.0092721004
0.066359997 0.032382 0.0096706999
0.067116 0.031684998 0.0098139998
-0.05156 -0.030276 0.0032531
0.033050001 -0.039664999 -0.0087652002
-0.012798 -0.035719 -0.047945999
-0.01394 -0.035620999 -0.048117001
0.032620002 0.0043676002 0.013112
0.082613997 -0.0027228999 0.021738
0.094407998 -0.0048421999 0.0041884002
-0.040238 -0.038550999 -0.045442
0.019172 0.01441 0.023441
0.084700003 0.014799 0.016799999
0.084475003 0.015604 0.016620001
-0.00076998997 0.014455 0.0066932999
0.072477996 0.021941001 0.0081428001
-0.01963 0.011353 0.0066760001
0.0057434002 0.0077173002 0.0080997003
-0.0097984998 -0.039918002 -0.041827001
-0.069922999 0.0016265 -0.011715
0.043644 -0.033705 0.0023854999
0.043595001 -0.032922 0.0018799
0.042289998 -0.033721998 0.0024001
0.02729 -0.013844 0.0040973998
-0.023136999 0.010823 -0.0054092002
-0.022576001 0.010204 -0.0070691002
0.04566 0.015506 0.021868
0.028635999 -0.022719 0.0064965999
0.076733001 0.016108001 0.011887
0.077039003 0.034859002 0.0078552002
0.10091 0.027029 0.0091856001
-0.063717999 0.0022150001 -0.021304
-0.063433997 0.0012693 -0.021381
0.017406 -0.027686 0.020421
0.061007999 0.033739999 0.011847
0.03782 -0.0061467998 0.0098794
-0.078758001 0.035622999 -0.017882001
-0.079383999 0.036357999 -0.017618001
0.029251 -0.025359999 0.038355
-0.015624 -0.034249999 -0.044179
0.041379001 -0.023328001 0.034906998
0.058773998 0.032882001 0.021245999
0.080967002 -0.003062 0.0060013002
0.080113001 -0.0034566999 0.0068899998
0.06521 0.032923002 0.0098952996
-0.02734 -0.032763999 0.021067999
-0.076347999 0.0056019998 -0.020149
0.056402002 -0.033023998 0.063386001
-0.047931001 -0.016745999 -0.0036567999
-0.065944001 0.01217 -0.019009
-0.065159999 0.012567 -0.018462
-0.073073 0.028655 -0.018138999
0.027301 -0.015679 0.058308002
0.01771 -0.014356 0.0037718001
0.058042999 -0.011824 0.014853
0.056892 0.017868999 0.033658002
0.038371 0.041841 0.0089621004
0.042153001 0.040499002 0.041733999
-0.017041 -0.0084263002 -0.026465001
0.088702001 0.023367999 0.0087158997
0.023600001 8.7927001e-05 0.021247
-0.049631 -0.030208999 -0.023150001
-0.019161999 -0.03957 -0.039152998
-0.041822001 -0.021443 -0.036471002
-0.059241001 -0.013492 -0.0079055
-0.017531 0.017504999 -0.0030129
-0.017994 0.013864 0.0011738
-0.018265 0.014023 -7.7670004e-05
-0.061606001 -0.023937 -0.015026
-0.061664 -0.023901001 -0.016301
0.021701001 -0.0032730999 0.03545
0.021122999 -0.0024482 0.034814
-0.044567998 -0.021405 -0.035142999
0.060945999 0.044707 0.0072900001
0.093055002 -0.0054231999 0.0051437002
0.094405003 -0.0051634 0.0051445998
-0.065309003 0.020637 -0.018153001
0.049176 -0.037342999 -0.010734
0.0063296999 -0.023925999 0.025281999
0.0076313 -0.016187999 0.037360001
0.0082034003 -0.015758 0.038035002
0.029081 -0.021807 0.0010426
0.0084015997 0.0091666002 0.016237
0.082415998 0.034600001 0.022131
0.041719999 0.032033 0.038578
0.042219002 0.031049 0.037342999
0.025006 -0.0086655999 0.0070477999
0.096900001 0.025269 0.013107
0.014054 0.00099910004 0.016393
0.013169 0.00033059 0.01581
-0.027179001 -0.039597999 0.027943
0.039999001 0.011847 0.010947
0.0019518 -0.0091151996 0.0067790998
-0.013404 -0.016396999 -0.020486001
0.088073999 0.029192001 0.020119
-0.065854996 0.018919 -0.01928
-0.066497996 0.018781001 -0.019722
-0.0057998002 0.012389 -0.0029267999
-0.020190001 0.0040869 0.014461
-0.0084597999 -0.011142 0.0051357001
-0.0084733004 -0.011128 0.0064824
-0.023841999 -0.014196 -0.00086489
0.041048001 -0.032577999 0.063872002
-0.021833999 -0.031502999 -0.043152001
-0.023956999 0.0045699002 -0.020950001
0.052058998 0.0037209 0.0063755
0.030285001 -0.036416002 0.061170999
0.072603002 0.0038536 0.022178
0.082502 0.028148999 0.0055569001
-0.069594003 0.037385002 -0.018714
-0.067695998 0.010879 -0.019780001
0.021297 -0.016796 -0.0047841002
0.052579999 0.0043198001 0.037866
0.020772999 -0.039941002 -0.01043
-0.032295998 -0.033218 0.0099454997
0.022260999 -0.0039805998 0.035962999
-0.039545 -0.010274 -0.024921
-0.014171 -0.035652999 -0.034223001
-0.013369 -0.035838 -0.035195
-0.028701 -0.0035059 -0.024944
-0.028448001 -0.0041423002 -0.025535
0.087197997 0.033969998 0.012581
0.061019 0.032184001 0.026614999
-0.067074001 0.022985 -0.019543
0.01819 -0.02138 -0.0057541998
-0.054163001 -0.017929001 0.0066486001
-0.054740999 -0.017057 0.0075046001
-0.054945 -0.017298 0.0064237998
0.070324004 0.037680998 0.027945001
0.070873 0.037 0.028486
0.016733 -0.027488001 0.028128
0.047952998 0.012351 0.032465
0.070372999 0.012137 0.027819
0.071794003 0.012106 0.026923001
0.071148001 0.012324 0.027363
0.036952998 0.0052482998 0.015686
0.080545999 -0.0032780999 0.0084095001
0.069089003 0.0013414 0.022569001
0.014266 -0.036697999 -0.0096573001
-0.070698999 -0.011626 -0.017333001
0.052995 -0.040321 -0.0069275
-0.077944003 0.029704001 -0.013719
0.077630997 0.015488 0.01277
-0.086326003 0.024396 -0.019602999
0.0034814 -0.00091627002 0.035179999
0.035489999 -0.002264 0.033713002
0.036382001 -0.0021023001 0.033923998
-0.055206999 -0.040013 0.0078071002
-0.054053001 -0.039882001 0.0078368001
0.03771 -0.017459 0.046668999
0.046174001 0.01099 0.029168
-0.015074 -0.036348 -0.033709999
0.046778999 0.012159 0.033645999
0.046677001 0.011268 0.033842999
-0.044551 -0.040628001 -0.051217001
-0.068591997 0.02025 -0.020179
-0.029896 -0.036254998 0.029325999
-0.029354 -0.035663001 0.028782001
-0.049502 -0.019846 -0.0064226999
0.070421003 0.0011083001 0.029298
0.048379 -0.022293 0.02311
0.019076001 0.01199 0.024741
0.022259001 -0.021702001 0.048064999
-0.032513998 -0.012136 -0.029568
0.026213 -0.010432 0.041584
-0.013352 -0.0074469 0.023027999
0.0051544001 -0.018724 0.034396
-0.027024001 0.0077713002 -0.020094
-0.023349 -0.038240001 0.012969
-0.023762001 -0.038428001 0.013981
-0.024403 0.0040520998 0.0037903001
-0.024667 0.0027093 0.0037785999
0.0063454001 -0.022541 0.018777
0.0062297001 -0.023056 0.019895
0.0050153001 -0.022521 0.019994
-0.066505998 0.035670999 -0.01685
0.096853003 0.023528 0.015591
0.063539997 0.022911999 0.030205
-0.015690001 0.014086 0.0072792
0.046025001 0.038231999 0.0077517
0.056283999 0.030298 0.0085174004
0.059657998 0.012184 0.0052093002
0.058352001 0.012111 0.0051163998
0.084981002 0.036509998 0.017440001
-0.060100999 -0.039914001 0.0039991001
0.034100998 -0.014872 0.049376
0.063467003 6.6004999e-05 0.0095354998
0.023095001 -0.030223999 0.060624
-0.049001001 -0.020164 -0.0055502001
-0.040674001 -0.033326 -0.036373999
-0.040522002 -0.033498999 -0.035115998
0.050388001 0.021583 0.010471
0.049950998 0.022441 0.0095458003
0.050035998 0.022112999 0.0097080003
0.038499001 -0.023127999 0.014352
0.039634001 -0.022863001 0.014588
0.039680999 0.0067635002 0.015760001
0.027667001 -0.028013 0.048234001
-0.068271004 0.035103999 -0.019533001
-0.069022998 0.035893001 -0.019724
0.052947 -0.032658 0.065328002
-0.0041252999 -0.0026680001 -0.012621
0.086336002 0.021978 0.022302
-0.067253001 0.018914999 -0.019957
0.095633999 -0.0030803001 0.015813001
0.094417997 -0.0025049001 0.015981
0.051525999 -0.036362998 0.071006998
0.050822001 -0.037643999 0.070423
0.051351 -0.037825 0.071039997
-0.063418999 -0.020406 -0.013554
-0.062252998 -0.020558 -0.012045
-0.049191002 -0.025038 -0.032361001
0.044546999 0.0056711002 0.012787
0.075447001 0.033388 0.014533
0.075315997 0.033348002 0.013343
-0.021778001 -0.039958999 -0.049800001
-0.038376 -0.032908 0.0084189
0.080588996 0.018100001 0.021179
0.062348001 0.033893999 0.014547
-0.039678998 -0.026136 -0.041329
-0.048282001 -0.012738 0.0014843
-0.083283 0.02025 -0.020717001
-0.083287999 0.021600001 -0.020640001
-0.030291 -0.029093999 -0.021473
-0.031188 -0.029327 -0.021698
0.074332997 0.028338 0.0106
0.074846998 0.028914999 0.011626
0.075207002 0.028063999 0.011074
0.027022 -0.011523 0.053031001
-0.038869001 -0.021481 0.0013246
0.026106 -0.0050947 0.013242
0.081326999 -0.013488 0.012894
0.062383 0.021627 0.030967999
0.061563998 0.022065001 0.031266998
0.036995001 -0.034649 0.0030424001
0.066297002 -0.0026813 0.025250999
0.066739 -0.0028230001 0.024006
-0.0064057 -0.0086883996 0.029916
0.016964 -0.035992 -0.0069984999
0.01708 -0.036763001 -0.0059432001
-0.028964 -0.025091 -0.011309
-0.051213998 -0.020510999 -0.027960001
0.071869001 0.022965999 0.025695
-0.025911 -0.033691 0.021323999
0.045336999 0.016152 0.024282999
0.046011999 0.016202999 0.023641
-0.045047 -0.016664 0.0033611001
-0.069214001 -0.014089 -0.018369
0.015103 0.0048850002 0.019907
0.084619999 0.035602 0.021679001
0.0067082001 0.0046470002 0.0074304999
0.0072216 0.0040949001 0.0065684002
0.069338001 0.01318 0.0071955002
-0.027334999 -0.0095253 -0.0012424
-0.027632 -0.0084271999 -0.0010392
-0.038307 -0.023344999 -0.035973001
0.043643001 0.020238999 0.0064584999
0.018908 -0.024985 0.034007002
0.018285999 -0.025308 0.033222999
0.030613 0.0049760002 0.02287
-0.067676 0.0064908001 -0.014025
0.001501 -0.019594001 0.017811
0.0023945 -0.019839 0.017433999
0.028909 0.0027339 0.025173999
-0.052542999 -0.024264 -0.043200999
-0.053415999 -0.023861 -0.042819999
0.026261 -0.039980002 0.058816999
0.023398001 -0.035296999 -0.0028707001
-0.048599999 -0.036375999 0.0068621999
-0.048615001 -0.035395 0.0062503
-0.026595 0.0037717 -0.0011386001
0.082382001 0.013507 0.011723
-0.01332 0.014083 -0.0061705001
-0.037482999 -0.031424999 -0.031064
-0.024907 -0.034251001 0.019948
0.047651 -0.035084002 0.068236999
-0.037103999 -0.026047001 -0.037301
-0.036906 -0.026985001 -0.037760001
-0.082047001 0.028331 -0.016345
-0.019211 -0.0041331002 -0.025415
0.084934004 0.0052481 0.0065370998
0.084468998 0.0061669 0.0077013001
0.016032999 -0.029181 -0.0017087
-0.039461002 -0.011581 -0.0091367997
-0.045706999 -0.034481 -0.034221999
-0.032853 0.0016818 -0.020314001
-0.082707003 0.035765 -0.014311
0.033266999 -0.00055472 0.030203
-0.039191 -0.036184002 -0.051566999
-0.091173001 0.025927 -0.015041
-0.032520998 -0.039425001 0.018569
-0.020847 0.0118 -0.015848
-0.021841999 0.012654 -0.015402
0.060566999 0.017533001 0.032822002
-0.044730999 -0.022724001 -0.040541001
0.065006003 0.025653001 0.0083969999
-0.040366001 -0.030322 -0.018436
0.072446004 0.019804001 0.0078523997
-0.082030997 0.032386001 -0.014621
-0.029844999 -0.030823 0.013166
-0.022871999 0.0068351999 -0.019409001
-0.023514999 0.0066648 -0.019903
-0.023145 0.0081270998 -0.019161001
-0.064476997 0.0067198998 -0.016369
0.0056448001 0.014356 0.017802
0.032074999 -0.028047999 0.062073998
0.033976998 -0.0075364001 0.011254
0.026268 -0.025635 0.062376998
0.026292 -0.024483999 0.062261
0.031755999 -0.017689999 0.052519001
0.038663 0.0064029 0.017693
0.010224 0.012027 0.023746001
-0.026916999 -0.038780998 0.033011999
0.053119998 0.0066840001 0.037126001
0.066354997 0.029704001 0.028283
0.066353001 0.031058 0.02801
-0.055295002 -0.016225999 0.0065179002
0.014485 -0.0090523995 0.010069
-0.018285999 0.0013102 0.017499
-0.069830999 -0.012118 -0.013652
0.041076999 0.016261 0.0047713998
0.040458001 0.016124001 0.0043938998
-0.0079356004 -0.012882 0.017361
-0.0072095999 0.0026775999 -0.016280999
-0.0064889002 0.0019527 -0.015628999
-0.0068699 0.0013992999 -0.016426999
-0.06459 0.014861 -0.017687
-0.064603999 0.016217999 -0.017681999
-0.069035999 0.038283002 -0.017832
-0.020471999 -0.031330999 -0.040490001
-0.019924 -0.031762 -0.041104
-0.016264001 -0.0051905001 -0.024848999
0.082324997 0.0067039998 0.01178
0.083719 0.0053913002 0.011553
0.082589 0.0055220998 0.011531
0.081520997 0.0086243004 0.0091578001
0.089056998 0.0054287999 0.014382
-0.088022999 0.023560001 -0.015539
0.042707998 -0.036318 0.066353999
0.0011058 -0.014497 0.012326
0.0019807999 -0.015275 0.012722
0.025273001 -0.027964 0.049754001
0.0049051 -0.01602 0.012178
0.0075023999 0.0077713998 0.028982
0.043191999 -0.025069 0.027643001
-0.016903 -0.034148 -0.048335999
-0.017979 -0.033813 -0.049786001
-0.043205999 -0.033711001 -0.031095
-0.040507998 -0.039489999 0.014531
0.062325001 0.0040396 0.0079279002
0.035110999 -0.024287 0.053388
0.020188 -0.031730998 -0.00081464002
0.033782002 -0.027685 0.029882001
0.072931997 0.023003001 0.0089507997
0.072506003 0.021972001 0.0087136002
0.050329 -0.040431 -0.016347
0.10125 0.023025 0.017062999
0.1016 0.022148 0.016652999
0.049610998 -0.034435999 0.00052519998
0.075714998 0.036150999 0.026617
-0.045093998 -0.027388999 0.0074828998
-0.065030999 -0.017609 -0.021929
-0.065049998 -0.016477 -0.022196
0.040559001 0.0085226996 0.018155999
0.045589998 -0.0074180001 0.0044347998
0.0022162001 0.013551 0.021374
-0.067720003 0.022863001 -0.01974
-0.024862999 0.0049957 -0.0211
0.081919 0.019455001 0.020145001
-0.018366 0.012713 0.0054188999
0.050799999 -0.0053689 0.038224
-0.051624998 -0.012353 0.0090921996
0.10055 0.029476 0.0082742004
0.018569 -0.00072905002 0.033978999
0.061912 -0.037225001 0.058975998
-0.076467 0.015027 -0.022247
-0.076860003 0.014528 -0.022449
-0.077877998 0.014558 -0.022449
-0.068287 0.032361999 -0.016179999
-0.067827001 0.032696001 -0.016786
0.016069001 -0.020245999 0.0038332001
0.051215 0.0016862 0.0072134999
-0.046342 -0.025838001 0.0086922999
-0.037792001 -0.029666999 -0.036472999
0.095751002 -0.0068703 0.014529
0.00091596 0.017238 0.01833
-0.011174 -0.035432 -0.041956
-0.011209 -0.035563 -0.042743001
0.043644 -0.030188 0.061207
-0.011579 -0.038612001 -0.036038999
-0.051715001 -0.032894999 0.0059854998
0.081942998 -0.0028591999 0.01063
0.0032559 0.0091877999 0.0024573
0.0032752999 0.0091898004 0.0011049
0.0022072999 0.0093214996 0.0011019
-0.069939002 0.022955 -0.013906
0.058154002 0.025593 0.033032998
0.081712 0.0034312999 0.0057921
-0.085987002 0.028317999 -0.013871
-0.085484996 0.028894 -0.014434
0.060671002 -0.036166001 0.05669
0.0074800001 0.0094966004 0.014579
0.059783 -0.036148999 0.067433998
0.061005 -0.036417998 0.067364
0.059661001 -0.035199001 0.066781998
-0.060470998 -0.011106 -0.0075110998
-0.012272 -0.0094462 -0.021794001
0.020086 -0.012843 -0.010369
0.062321 0.0053870999 0.0076092998
0.093065999 0.026002999 0.011852
0.023297001 -0.012085 0.058823999
-0.051424 -0.013107 0.0035999001
-0.016484 -0.037799999 -0.033411
0.052677002 0.0057771001 0.033693999
0.052553002 0.0067925001 0.034653999
0.034685001 0.0039170999 0.026884999
-0.035199001 -0.035101 -0.0394
0.086213998 -0.00064327999 0.0044677998
0.050758999 -0.020738 0.023893001
0.011493 -0.0017801001 0.036754999
0.046819001 0.010932 0.035372999
-0.0043140999 -0.016268 0.017209001
-0.0040479 -0.017015999 0.01722
0.040545002 -0.036865 -0.010098
-0.051911999 -0.014151 -0.0076016001
-0.052019 -0.014937 -0.0073815999
0.078360997 0.037686002 0.010186
0.023551 -0.010321 0.040451001
0.023627 -0.0096834004 0.039804999
0.059873 0.044617999 0.0078771999
-0.044550002 -0.032352999 0.0050197998
-0.044695999 -0.031086 0.0052995002
-0.025847999 -0.01337 -0.002931
0.022275999 -0.019233 -0.0041268999
-0.015149 -0.040413 -0.052574001
-0.016449001 -0.040249001 -0.052528001
-0.015149 -0.040491998 -0.053902999
0.031613 -0.028266 0.019920999
0.032919001 -0.027966 0.019905001
0.048462 0.01946 0.010413
0.038755 -0.038603999 0.063625999
0.048958 0.022683 0.033300001
0.050340001 0.021981001 0.033321001
0.090322003 0.024203001 0.015509
0.039561 -0.0061229998 0.037999999
0.091732003 0.025746999 0.011857
0.073270999 0.035126001 0.028548
0.072995 0.036251001 0.027949
0.051709 0.030998999 0.030578
0.086319998 0.0012179 0.0091781002
-0.038640998 -0.0058937999 -0.022399001
-0.0065259002 0.0046371999 -0.014217
0.050556 0.035893999 0.033590999
0.054343 -0.039140001 0.066871002
0.072333001 -0.0034016001 0.005816
0.073076002 -0.0035512999 0.0060226
0.042089 0.032407001 0.037319001
0.00091300003 0.0026618999 0.033054002
0.00086042 0.0034322001 0.032678001
0.00038844001 0.0030948999 0.032492999
0.097413003 0.033971999 0.010242
0.046801999 -0.039848 -0.0083426004
-0.024232 -0.038215 0.013073
-0.015376 0.0082222 0.019949
-0.015775001 0.0086853998 0.019223999
0.084909 0.031452 0.016424
-0.071262002 0.0054040002 -0.021453001
-0.044521999 -0.035083 0.0052029002
-0.044523001 -0.033709001 0.0048997998
-0.012165 -0.0090921996 0.021122999
0.031714 -0.030661 0.062206
0.030270999 -0.029679 0.062304001
0.030567 -0.030454 0.062196001
0.087573998 0.038027 0.022286
0.088528 0.038357001 0.02196
0.026255 -0.029957 0.051621001
0.022833999 -0.016806001 -0.0035240999
-0.018828001 -0.0039725001 0.014343
-0.0073791002 -0.010315 -0.0029253999
0.050317999 -0.040091 -0.0055963998
-0.012001 -0.011402 0.0028609
0.077042997 0.0040750001 0.006234
0.078381002 0.0040870002 0.0061389999
-0.04854 -0.024231 -0.0056715002
0.048962999 -0.0080845999 0.037005
-0.073151 0.0048141 -0.020993
-0.0084624998 -0.011826 0.01319
-0.067256004 -0.0040358002 -0.022151999
-0.011681 -0.0093154004 -0.021159001
0.076187 -0.00095521001 0.0085581997
0.076816998 -0.0005203 0.0085615003
0.076139003 -0.00044716001 0.0085516004
-0.02101 -0.039817002 -0.045061
0.0059789 -0.0036047001 0.0042527998
-0.0031281 1.1233e-05 0.03342
-0.0031073 0.0013577 0.032993998
-0.029424001 -0.019022999 -0.0063340999
-0.049203001 -0.02764 -0.030352
-0.049253002 -0.027744999 -0.02963
0.016912 -0.028152 0.023925999
-0.050852999 -0.024176 -0.0024812999
0.051043998 0.026272001 0.015155
0.048222002 0.031656999 0.037459999
-0.059588999 -0.016687 -0.024936
0.050448 -0.01508 0.012916
-0.0022909001 0.011601 -0.0011962
-0.033622999 -0.0069496999 -0.0086676003
-0.032678001 -0.0066809999 -0.0080201002
-0.066090003 -0.014971 -0.010786
-0.065587997 -0.014558 -0.01002
-0.010746 0.01519 -0.0018730999
0.047265001 -0.033879999 -0.010826
0.047662999 -0.022905 0.026621999
0.028480999 -0.0036553 0.015361
0.027793 -0.0028994 0.016161
-0.038633998 -0.010051 -0.025111999
-0.021281 0.011742 -0.0071516
0.063661002 0.034728002 0.021212
0.083742 0.040091999 0.0070254002
0.053049002 0.01103 0.032504
-0.067233004 0.016210999 -0.013784
-0.066520996 0.017310999 -0.014253
-0.067222998 0.017550001 -0.013845
-0.019003 0.014875 -0.0055618002
0.028934 -0.031005001 0.051594999
-0.043203 -0.028170001 -0.0015623
0.050450999 0.022008 0.032028999
-0.017874001 -0.037845001 -0.033822998
0.063800998 0.001269 0.030928999
0.035613 -0.027247 0.029301001
0.046675 0.024535 0.033454999
-0.031181 -0.035096001 0.0091642002
0.036942001 -0.039721999 -0.0024861
0.021091999 -0.0063518998 0.037934002
0.065824002 -0.00082815997 0.012391
0.049972001 0.013844 0.01272
0.034277 -0.030742999 -0.00026112999
0.081068002 0.020532999 0.0091824001
0.082465 0.021305 0.0091987997
0.081147 0.021476001 0.010671
-0.053569 -0.013735 0.0053579998
0.021336 -0.0036045001 0.036285002
-0.024503 -0.037792001 -0.051306002
-0.053507 -0.036734 0.010181
-0.0062759002 0.019587999 0.0084204003
-0.0069058002 0.019588999 0.0077983001
-0.048354998 -0.034692999 -0.036586002
-0.048000999 -0.034465 -0.035659
0.049738001 0.022105001 0.016452
0.00088625 0.0066852998 0.030784
0.056173999 -0.01533 0.026772
-0.017329 0.001715 0.020815
0.039308999 0.0058158999 0.030189
-0.086800002 0.021974999 -0.018642999
0.050337002 -0.031098999 0.061409
0.050315998 -0.031440999 0.062840998
-0.018037001 -0.037531 0.014034
0.059679002 -0.0080570001 0.030486999
-0.024142001 0.0013577 0.0050265999
0.095573999 -0.0053789001 0.011912
-0.0036229 -0.0042274999 0.032552999
0.082808003 0.0069468999 0.017356999
-0.0095290001 0.012629 -0.0057784999
-0.03452 -0.011525 -0.0062766001
0.01156 0.0094434004 0.019969
0.012647 0.0081029003 0.020427
0.045711 0.00061758998 0.0082879001
0.082377002 0.037046 0.013988
0.080874003 0.036779001 0.013963
0.066353001 0.028348001 0.0085990997
-0.081028998 0.037363 -0.015398
-0.080734998 0.037656002 -0.016361
0.052565001 0.0068794 0.03602
0.065033004 0.0040928 0.0090001998
0.017343 0.012997 0.024685999
0.052947 -0.0053621 0.038329002
-0.036529001 -0.040334001 -0.048523001
-0.011125 -0.037641998 -0.033220001
-0.072613999 0.0067528002 -0.021523001
-0.071261004 0.0067615001 -0.021629
0.048280001 -0.033128001 -0.0042091999
0.039565999 -0.039452001 0.063068002
-0.043595001 -0.019956 -0.031319998
0.040784001 0.015059 0.0051318002
0.055635002 -0.036431 0.0025136999
0.028546 -0.011784 0.047993999
-0.062918998 -0.01484 -0.023974
0.027396001 -0.022073001 0.061053
0.050313 0.028346 0.0065800999
-0.085125998 0.01877 -0.019483
-0.064292997 -0.020051001 -0.020482
0.075732 0.0085426001 0.0072526
0.050432 0.012259 0.030183
-0.021616001 -0.013386 0.00072518998
0.031105001 0.0045791999 0.022012001
0.054333001 -0.039232999 0.002447
0.093832999 -0.0031198999 0.0082834996
0.060640998 0.025532 0.031509001
-0.053789999 -0.020529 0.0088285999
-0.052537002 -0.02028 0.0091086002
-0.053991001 -0.019905999 0.0081682
-0.0052286 -0.011565 0.028751999
-0.0044505 -0.012127 0.029282
-0.0018741 0.0030425999 0.032483999
-0.0017842 0.0040508001 0.032028999
-0.025745001 -0.0045043002 -0.026534
-0.02674 -0.0046410998 -0.026442001
-0.0034922999 0.012987 0.0012185
0.059671 -0.037921 0.060168002
0.043611001 0.029680001 0.011659
0.042511001 0.029716 0.011352
0.042734999 0.028663 0.011325
0.055160001 0.024319001 0.035445001
0.041230999 0.015342 0.0076120002
0.041005 0.015116 0.0063616
-0.033135001 -0.029011 -0.025138
-0.068599001 -0.0026903001 -0.010668
-0.068595 -0.0013415 -0.010983
-0.029837999 -0.037778001 -0.051093999
-0.035048999 -0.035154998 0.022193
-0.035574 -0.034745 0.021740999
-0.036524002 -0.035059001 0.021314999
0.081370004 -0.0037217999 0.018851999
-0.026292 -0.026358999 -0.01423
-0.045880001 -0.040267002 -0.054763
0.044195998 -0.010794 0.039283998
0.033438001 -0.027615 0.023112001
0.033696 -0.027698999 0.022400999
0.098541997 0.031102 0.014749
0.022264 -0.040245 0.057461001
0.023584001 -0.040098 0.056120001
-0.018871 0.0039296998 0.018314
-0.015254 0.011229 0.01596
-0.011254 0.0059984 -0.015558
-0.011333 0.0054973001 -0.016359
0.032951999 -0.031213 -0.0055200998
0.044124998 -0.02067 0.015585
0.054230001 0.0098045003 0.031096
0.053137999 0.010605 0.030654
0.054326002 -0.032382999 0.064208001
0.052078001 0.016959 0.0073620998
0.057261001 -0.039271999 -0.0029126001
-0.065132 0.013582 -0.015436
0.039666999 0.0066487002 0.025315
-0.0076581002 0.002292 -0.017181
0.034742001 -0.031644002 -0.0063147
-0.046390001 -0.037025001 -0.043469999
-0.045811001 -0.037349001 -0.043110002
0.0086727003 0.0089192996 0.027481001
-0.0073358999 -0.012363 0.024019999
-0.0070177 -0.013267 0.022538001
-0.0067467 -0.013036 0.023761
-0.0013167 -0.010021 0.0072733001
0.031642001 0.0027014001 0.014431
-0.080954999 0.037434999 -0.018678
0.089068003 0.021772999 0.018607
-0.065200999 -0.019524001 -0.015822001
0.062344 0.027014 0.0082363999
-0.041862998 -0.030858999 -0.021699
-0.043198001 -0.03101 -0.023039
0.022020999 -0.039832 -0.0060069999
0.057886999 -0.0065692998 0.032873999
0.022226 -0.011714 0.041749001
-0.023902999 0.0088732 -0.0082793003
-0.040509 -0.017802 -0.030843001
-0.04642 -0.033465002 0.015147
0.030788001 -0.027509 0.050615001
0.036961999 -0.0094237998 0.0091661001
-0.037112001 -0.029472999 -0.034717999
-0.076612003 0.013498 -0.022595
0.048976 -0.0040683998 0.0050789001
0.098390996 0.024308 0.013219
-0.071886003 -0.0032595999 -0.02066
0.093102001 0.022902001 0.018557999
0.094185002 0.023396 0.019678
-0.048983999 -0.018610001 -0.0065461998
-0.035386 -0.0078510996 -0.024735
0.068094 0.035519 0.027793
-0.046078 -0.037200999 -0.051224001
0.049059998 -0.037124 0.056731999
0.055845998 0.034024999 0.0119
-0.017394001 0.014374 0.0009554
-0.037076 -0.027365999 -0.038821999
0.050122999 0.019424999 0.028529
-0.039044 -0.032772001 0.018205
-0.02715 -0.030866001 -0.041877002
0.055463001 -0.035418998 0.068311997
0.0064535998 -0.019723 0.015055
0.034814 -0.00057516998 0.014121
0.063693002 0.010836 0.032223001
-0.042681001 -0.0099189999 -0.023948999
-0.080600001 0.01756 -0.015139
-0.079282001 0.018894 -0.014783
-0.049437001 -0.034526002 0.0056710001
0.025676999 -0.032979 0.0017699
0.025976 -0.033891 0.0016992
0.033445001 -0.026236 0.016621999
0.063318998 0.014618 0.031447999
-0.036369 -0.018178999 -0.031780999
-0.02104 -0.036632001 -0.037191998
0.063677996 0.0080976002 0.0077138999
0.062339999 0.0067547001 0.0074994001
0.046319 -0.014848 0.010512
-0.024515999 -0.039955001 -0.043172002
-0.025838001 -0.040006999 -0.043175999
-0.042787999 -0.014111 -0.0067301998
-0.016448 0.010755 0.015872
-0.015643001 0.011415 0.015118
-0.016960001 0.0099862004 0.015389
-0.017346 0.010282 0.016171001
0.061071999 -0.038964 0.076283
0.061524 -0.038516998 0.076938003
0.099944003 0.026981 0.0077888998
0.099343002 0.028432 0.0068742
-0.045444001 -0.028705999 -0.047913
-0.048175 -0.021878 -0.029856
-0.016466999 -0.010633 0.0051265
-0.017548 -0.010382 0.0048043998
0.085004002 0.028541001 0.017624
-0.031624001 -0.025148001 -0.010206
0.036212999 -0.015737999 0.047336001
0.081437998 0.0069823 0.010785
0.022286 -0.01859 -0.0029432999
0.0078399004 -0.0074723 0.0083954995
-0.015149 -0.010895 0.0051333001
0.056449 -0.00012609 0.034031
0.056772999 0.0015935 0.034717999
0.018919 -0.01277 -0.00086671999
0.0075559998 0.01341 0.02249
0.043822002 0.034658 0.036586002
0.045042999 0.035158001 0.037083998
0.044560999 0.034616999 0.036587998
0.083713003 0.02837 0.0052536
-0.037590001 -0.0046142 -0.016925
0.054448001 0.016377 0.031169999
0.036502 -0.0073513002 0.039434001
0.072511002 0.013418 0.0043893
-0.052730002 -0.032402001 0.0092126997
0.03559 -0.022851 0.038663
0.034054 -0.024033999 0.038392998
-0.0023884999 0.015452 0.017859001
0.069022998 0.017550001 0.028207
-0.051986001 -0.028743999 -0.040314998
0.053468999 -0.0097070001 0.033817999
-0.023839001 -0.0088143004 0.0017891
0.040971 -0.039165001 -0.0029092
0.042321 0.044528998 0.04143
0.048360001 0.023503 0.013716
-0.0013299 -0.0053301998 -0.0069276001
-0.020514 -0.015626 -0.0034349
-0.069935001 0.032395002 -0.020203
0.086064003 0.038013998 0.023631001
0.086594 0.037593 0.022717999
0.0057235002 0.0064694998 0.0068120998
0.041003 -0.037758 0.065177001
0.033445999 -0.038458001 0.055424001
0.096643999 0.025028 0.0046013002
0.062624998 -0.036421999 0.060125001
0.081315003 -0.01214 0.013035
0.070299998 0.028310999 0.0089391004
0.072469003 0.0046446999 0.019839
-0.074813001 0.0015038 -0.018695001
-0.075089999 0.0027661 -0.019017
-0.018121 0.012574 0.0065673999
-0.0195 0.012618 0.0025104999
-0.053892002 -0.016181 -0.026017999
-0.053098999 -0.030206 0.0046176999
0.0010946 -0.0041807001 -0.0018506
0.050349999 -0.035064999 0.069454998
0.012767 -0.013322 0.010954
0.046301 0.024309 0.0078237001
-0.020369001 -0.031874001 -0.048540998
0.043536998 -0.00089947 0.035000999
0.044978 -0.032191001 -0.011099
0.045835 0.016814999 0.020465
0.046319 0.017273 0.019854
0.047070999 -0.034286 -0.01189
0.036811002 -0.026509 0.020045999
0.083522998 -0.011814 0.0097246002
-0.012556 0.018592 -0.00014783
-0.011662 0.018301999 0.00031191
0.040176 0.030115001 0.0099847997
-0.013007 -0.0056238002 0.02444
-0.010699 -0.0090015996 0.023595
0.0070469002 -0.020656999 0.015608
-0.056031 -0.020687999 0.0073469998
-0.055617001 -0.019801 0.0067023998
-0.056279998 -0.020377999 0.0064432002
0.034008998 0.0030691 0.019439001
0.02362 -0.027264001 0.0051694
0.055158999 -0.0048870002 0.0084611997
-0.027161 -0.033759002 -0.039026
-0.024239 -0.034134999 -0.038373999
0.0075711999 0.0057643 0.031014999
0.066342004 0.021601999 0.0080231
-0.017044 -0.0022674 -0.023657
0.084891997 -0.013438 0.011818
-0.067404002 -0.0081669996 -0.023406001
-0.083278 0.035092998 -0.01457
-0.023418 -0.018652 -0.0059322999
0.028879 -0.010564 0.042787001
0.02919 -0.01001 0.042172
0.094426997 0.025821 0.0039617
-0.063573003 -0.020617999 -0.020211
-0.011331 0.012539 0.017322
0.090066999 0.037312999 0.0070500001
-0.061165001 0.0035097999 -0.016938001
0.036125999 -0.0044709002 0.010935
0.027147001 -0.024634 -0.0052844998
0.013005 0.011075 0.024138
-0.0016728 0.013587 0.0049871998
0.041972999 -0.033831999 0.052678999
0.041712999 -0.033016998 0.052754
-0.059531 -0.0015416 -0.01403
-0.058983002 -0.001193 -0.014561
0.073057003 0.030968999 0.025350999
0.10034 0.030208001 0.01366
0.0029654 -0.0034455999 0.0017114
0.0035522 -0.0029730999 0.0011092999
-0.020764999 0.014148 -0.012844
-0.020559 -0.039081 0.022613
-0.014567 -0.012776 0.00042731001
0.022404 -0.020295 0.054715998
-0.024935 -0.036970999 0.0085559003
0.033776999 -0.018976999 0.054712001
0.076975003 0.032524999 0.025265001
0.045745999 -0.031622 -0.01038
-0.0017694 0.018894 0.013196
-0.087536 0.043597002 -0.016821001
-0.073935002 0.020249 -0.021644
0.018509001 -0.026949 -0.0078966003
0.0592 -0.011552 0.027399
0.028971 -0.024487 0.013087
0.057553001 -0.037190001 0.068149999
0.079714 0.016186999 0.013092
0.044860002 0.015145 0.029712001
0.019598 -0.028406 0.025271
-0.018765001 -0.014014 -0.027186001
-0.017929001 -0.013419 -0.026992001
0.036874 -0.022792 0.045481
0.043621998 -0.037930999 0.065649003
0.089117996 0.023684001 0.0059660999
0.087667003 0.023809999 0.0061754999
-0.043051999 -0.025691001 0.0040871999
-0.0528 -0.0098110996 -0.012747
-0.027187999 -0.039361 0.015891001
0.003334 0.0053901002 -0.0015325
-0.043811999 -0.015421 0.0005126
0.017119 -0.025653001 -0.0067838999
0.017117999 -0.024274001 -0.0067385002
0.077843003 0.013039 0.0094181001
0.077798001 0.013032 0.010036
-0.028516 -0.039512001 0.01987
0.0073453002 -0.01764 0.012789
0.093842 0.0071832999 0.011133
0.093943998 0.0076131001 0.011155
-0.053862002 -0.039981999 0.0051405998
-0.0043636998 -0.0066748001 0.031693
0.046342999 0.014709 0.030061999
0.047074001 0.01402 0.029995
0.062596999 -0.0042217998 0.029484
0.090121999 0.022090999 0.018549999
0.090653002 0.022427 0.018695001
0.089869 0.022164 0.019308999
-0.052485 -0.010684 -0.012165
-0.023402 -0.0096706999 0.0014919
-0.022547999 -0.010116 0.0018278999
-0.022957001 -0.0092430003 0.0021913
0.047152001 -0.017042 0.012441
-0.013315 -0.0074670999 0.023391999
-0.078328997 0.034717999 -0.018612999
-0.019642999 0.019374 -0.0078889001
-0.019145999 -0.0026896 0.014551
-0.018611001 -0.0024544999 0.015418
0.052274998 0.034274999 0.013874
0.051667999 -0.017549001 0.018542999
0.039625 0.00035603999 0.033684
0.040975001 0.0011962 0.033109002
0.039657 0.0011624 0.033009999
-0.05621 -0.01981 -0.0074736001
-0.015673 -0.01421 -0.0021575
0.023868 -0.011226 0.061023001
0.02366 -0.012074 0.061117999
0.024634 -0.011237 0.061055999
0.0091062998 -0.021135001 0.035619002
0.010126 -0.021988001 0.034988001
0.01657 -0.017428 0.0063956999
-0.069599003 -0.013274 -0.019965
-0.070285 -0.01226 -0.018684
0.054650001 0.015804 0.034612998
0.055700999 0.016159 0.034846999
0.077886999 -0.0013206 0.020739
-0.018766999 0.0073592998 -0.016943
-0.0066804001 -0.012904 0.014888
0.044606999 0.032118998 0.0054772999
0.049123 0.019935001 0.027674001
0.089054003 0.024693999 0.014531
0.088901997 0.02486 0.013326
0.023597 -0.028333001 0.061792001
-0.014104 -0.035553001 0.012631
-0.046937 -0.040222999 -0.054646
0.076927997 0.017517 0.014556
0.059781 -0.034589998 0.065615997
-0.056127001 -0.024294 0.0087679001
-0.056021001 -0.023282999 0.0086217001
-0.045008 -0.037245002 -0.049483001
-0.045549002 -0.038123 -0.048898999
0.010471 -0.025142999 0.029149
0.0099579999 -0.024791 0.029475
0.095775999 0.024831001 0.0054774
0.01675 -0.018997001 0.039124001
0.087906003 0.032350998 0.0091610998
-0.050058998 -0.017578 0.0075321998
0.040013 -0.035390001 0.064983003
0.039960001 -0.036378 0.065050997
0.0054631 -0.022318 0.03011
-0.0071724001 0.0097821001 0.024157001
0.018174 -0.0043000001 0.014726
0.036014002 0.0077300002 0.028956
-0.061930999 -0.017571 -0.0093224002
0.037174001 0.0092641003 0.027992001
-0.056148998 -0.025564 0.0054196999
0.018270999 -0.039135002 -0.0045443
0.017222 -0.038237002 -0.0048163999
-0.056657001 -0.024253 0.0078443
-0.057016999 -0.02293 0.0065196999
-0.056836002 -0.024282999 0.0065286998
0.026567999 -0.037294999 -0.00049501
0.018754 -0.031840999 -0.0042558
-0.063799001 -0.0018275999 -0.011572
-0.064682998 -0.0014495 -0.011304
0.056922 0.016262 0.030335
0.012922 -0.0094267996 0.040146001
-0.012504 -0.036589999 -0.055268999
-0.018213 -0.035557002 0.0097308997
0.041765001 -0.019618999 0.012445
-0.067254998 3.1547999e-05 -0.022205999
-0.068572998 -1.1561e-05 -0.021934999
0.071686 0.0043465998 0.0068358998
0.054765001 -0.0057442999 0.0086011998
0.0035838999 0.014832 0.021017
-0.047626 -0.015815999 -0.0032207
0.017935 0.0040595001 0.021796999
